# .PCD v0.7 - Point Cloud Data file format
VERSION 0.7
FIELDS x y z intensity
SIZE 4 4 4 4
TYPE F F F F
COUNT 1 1 1 1
WIDTH 1688
HEIGHT 1
VIEWPOINT 0 0 0 1 0 0 0
POINTS 1688
DATA ascii
0 0 0 50
6.2449999 1.809 0.498 48
6.3179998 1.835 0.60900003 20
9.1719999 2.6719999 1.038 1
6.3850002 1.84 0.20100001 1
6.303 1.819 0.30199999 32
6.244 1.8049999 0.403 46
6.2509999 1.8099999 0.50700003 47
6.3449998 1.8430001 0.62 17
9.2390003 2.6919999 1.058 1
6.421 1.849 0.20999999 1
6.2969999 1.8150001 0.30899999 33
6.243 1.803 0.41 47
6.256 1.8099999 0.514 43
6.3449998 1.841 0.62800002 11
9.3079996 2.7090001 1.076 1
6.4419999 1.851 0.219 1
6.2940001 1.811 0.317 35
6.2490001 1.801 0.417 47
6.263 1.809 0.523 42
6.3530002 1.84 0.63599998 6
9.3730001 2.724 1.096 1
6.4510002 1.849 0.226 1
6.296 1.807 0.324 36
6.2509999 1.7970001 0.42500001 46
0 0 0 50
6.3740001 1.842 0.64499998 1
9.4530001 2.7409999 1.1160001 1
6.473 1.85 0.234 1
6.296 1.801 0.331 35
6.2529998 1.7920001 0.43200001 46
6.2750001 1.803 0.53799999 36
6.4099998 1.846 0.65600002 0
9.474 2.7379999 1.1289999 1
6.4920001 1.847 0.242 1
6.3010001 1.795 0.33899999 33
6.2579999 1.786 0.43900001 44
6.2969999 1.802 0.54699999 29
8.7440004 2.5090001 0.90499997 1
9.5530005 2.75 1.149 1
6.527 1.848 0.25099999 1
6.3099999 1.789 0.34599999 31
6.2639999 1.78 0.447 40
6.3130002 1.798 0.55500001 23
8.8009996 2.5139999 0.92000002 1
9.6160002 2.756 1.1670001 1
6.5489998 1.844 0.25799999 1
6.3080001 1.779 0.352 26
6.283 1.775 0.45500001 34
6.329 1.7920001 0.56300002 21
8.8240004 2.506 0.93199998 1
9.6569996 2.7520001 1.182 1
0 0 0 50
6.3270001 1.773 0.36000001 21
6.29 1.766 0.461 24
6.3649998 1.791 0.57300001 15
8.8590002 2.5 0.94499999 1
9.71 2.75 1.198 1
6.6110001 1.836 0.27399999 1
6.3540001 1.768 0.368 18
6.3319998 1.765 0.47099999 20
6.3899999 1.786 0.58099997 6
8.9309998 2.503 0.95999998 1
9.7530003 2.7420001 1.2130001 1
6.631 1.827 0.28099999 1
6.3860002 1.762 0.375 13
6.3720002 1.762 0.47999999 17
6.401 1.774 0.588 0
8.9659996 2.493 0.97299999 1
9.8030005 2.7349999 1.228 1
6.6409998 1.814 0.287 1
0 0 0 50
6.395 1.753 0.48699999 10
8.2539997 2.2679999 0.76499999 1
8.9809999 2.4749999 0.98199999 1
9.8450003 2.723 1.242 1
6.6550002 1.801 0.294 1
7.026 1.904 0.42500001 1
6.4590001 1.7539999 0.49700001 0
8.2779999 2.2539999 0.77399999 1
9.0150003 2.461 0.99299997 1
9.8730001 2.7049999 1.253 1
6.6739998 1.7869999 0.29899999 1
7.1269999 1.9119999 0.43599999 1
7.6690001 2.0610001 0.59600002 1
8.3120003 2.24 0.78299999 1
9.0459995 2.4449999 1.003 1
9.9130001 2.6889999 1.266 1
6.7090001 1.777 0.30599999 1
7.1550002 1.898 0.44299999 1
7.6900001 2.0439999 0.60299999 1
8.3179998 2.217 0.79000002 1
9.0679998 2.424 1.012 1
9.9750004 2.675 1.28 1
6.73 1.761 0.31200001 1
7.1630001 1.877 0.449 1
7.7049999 2.023 0.61000001 1
8.3479996 2.198 0.79900002 1
9.099 2.4030001 1.022 1
10.009 2.652 1.2920001 1
6.7270002 1.738 0.317 1
0 0 0 50
7.743 2.007 0.61699998 1
8.3629999 2.174 0.80500001 1
9.1440001 2.3840001 1.0319999 1
10.002 2.6170001 1.2970001 1
6.7480001 1.719 0.322 1
7.2030001 1.8380001 0.461 1
7.75 1.982 0.62300003 1
8.3739996 2.1470001 0.81099999 1
9.1590004 2.355 1.039 1
10.015 2.585 1.304 1
6.7610002 1.697 0.32600001 1
7.2160001 1.8150001 0.465 1
7.7490001 1.9529999 0.62699997 1
8.3809996 2.118 0.81599998 1
9.1520004 2.319 1.044 1
10.026 2.55 1.311 1
6.7610002 1.6720001 0.33000001 1
7.2150002 1.7869999 0.46900001 1
7.7729998 1.929 0.63200003 1
8.4219999 2.096 0.82499999 1
9.1520004 2.2839999 1.0470001 1
10.095 2.5280001 1.324 0
6.7740002 1.648 0.333 1
7.2290001 1.761 0.47299999 1
7.7859998 1.901 0.63700002 1
8.4040003 2.0569999 0.82599998 1
9.1700001 2.2520001 1.053 1
0 0 0 50
6.7789998 1.6210001 0.336 1
7.2350001 1.733 0.47600001 1
7.7930002 1.87 0.64099997 1
8.4200001 2.026 0.83099997 1
9.2040005 2.221 1.061 1
10.975 2.658 1.447 6
6.7880001 1.594 0.33899999 1
7.2449999 1.704 0.47999999 1
7.7940001 1.837 0.64300001 1
8.4169998 1.988 0.833 1
9.1990004 2.1800001 1.063 1
10.097 2.401 1.335 1
6.7859998 1.563 0.34200001 1
7.244 1.671 0.48199999 1
7.783 1.799 0.64499998 1
8.4239998 1.952 0.83600003 1
9.1890001 2.1359999 1.064 1
10.099 2.3559999 1.337 1
6.7789998 1.53 0.34299999 1
7.2350001 1.636 0.48300001 1
7.7969999 1.766 0.648 1
8.4209995 1.9119999 0.838 1
9.198 2.095 1.067 1
10.081 2.3039999 1.337 1
6.7800002 1.498 0.345 1
7.2399998 1.602 0.48500001 1
7.7919998 1.728 0.64899999 1
8.4379997 1.876 0.84100002 1
9.1999998 2.0510001 1.069 1
10.059 2.25 1.335 1
6.7740002 1.464 0.34599999 1
7.243 1.567 0.48699999 1
0 0 0 50
8.4309998 1.8329999 0.84100002 1
9.191 2.003 1.069 1
10.061 2.201 1.337 1
6.7789998 1.431 0.347 1
7.2360001 1.529 0.48699999 1
7.777 1.647 0.64999998 1
8.4090004 1.785 0.83999997 1
9.1969995 1.9579999 1.0700001 1
10.067 2.1500001 1.3380001 1
6.7639999 1.393 0.347 1
7.2329998 1.492 0.48699999 1
7.7800002 1.607 0.65100002 1
8.4119997 1.742 0.84100002 1
9.1470003 1.899 1.064 1
10.024 2.0880001 1.332 1
6.7639999 1.357 0.347 1
7.2220001 1.451 0.48699999 1
7.7659998 1.563 0.64899999 1
8.3950005 1.694 0.83899999 1
9.1479998 1.851 1.0650001 1
10.042 2.0380001 1.334 1
6.757 1.319 0.347 1
7.2179999 1.411 0.48699999 1
7.7550001 1.5190001 0.648 1
8.3859997 1.647 0.838 1
0 0 0 50
10.024 1.98 1.331 1
6.7529998 1.2819999 0.347 1
7.2140002 1.3710001 0.486 1
7.7480001 1.475 0.64700001 1
8.3719997 1.598 0.83600003 1
9.1079998 1.743 1.058 1
10.001 1.919 1.326 1
6.7410002 1.242 0.34599999 1
7.1950002 1.327 0.484 1
7.7280002 1.428 0.64499998 1
8.3540001 1.5470001 0.833 1
9.092 1.688 1.0549999 1
9.9720001 1.857 1.321 1
6.743 1.204 0.345 1
7.177 1.283 0.48300001 1
7.7270002 1.3839999 0.64399999 1
8.3520002 1.498 0.83200002 1
9.0690002 1.631 1.051 1
10.021 1.807 1.326 3
6.7389998 1.164 0.34400001 1
7.1719999 1.24 0.48100001 1
7.7119999 1.335 0.64099997 1
8.3210001 1.444 0.82700002 1
9.5930004 1.669 1.11 5
0 0 0 50
6.7129998 1.12 0.34200001 1
7.1539998 1.194 0.479 1
7.697 1.2869999 0.639 1
8.2959995 1.39 0.82200003 1
9.5649996 1.6059999 1.104 5
9.9399996 1.674 1.3099999 8
6.7069998 1.079 0.34 1
7.1399999 1.15 0.47600001 1
7.677 1.238 0.63499999 1
8.2819996 1.3380001 0.81900001 1
9.5640001 1.549 1.101 5
9.9069996 1.608 1.302 5
6.6950002 1.0369999 0.338 1
7.1199999 1.103 0.47299999 1
7.6570001 1.188 0.63200003 1
8.2639999 1.284 0.815 1
9.526 1.483 1.094 5
7.5900002 1.184 0.99599999 7
6.6799998 0.99299997 0.336 1
7.1170001 1.059 0.47099999 1
7.6350002 1.137 0.62800002 1
7.6919999 1.147 0.75599998 0
7.6399999 1.142 0.875 0
7.7550001 1.161 1.0140001 1
6.6700001 0.949 0.33399999 1
7.1069999 1.012 0.46900001 1
7.6110001 1.085 0.62400001 1
7.6469998 1.092 0.74900001 1
0 0 0 50
7.5679998 1.085 0.98699999 12
6.6490002 0.90499997 0.331 1
7.0960002 0.96600002 0.46599999 1
7.5939999 1.035 0.62 1
7.6360002 1.041 0.74599999 2
7.5869999 1.036 0.86299998 5
7.5510001 1.034 0.98199999 14
6.632 0.86000001 0.32800001 1
7.0900002 0.91900003 0.463 1
7.5689998 0.98199999 0.61500001 1
7.6500001 0.99400002 0.74400002 1
7.6090002 0.99000001 0.86299998 2
7.5159998 0.97899997 0.97399998 12
6.6209998 0.815 0.32600001 1
7.059 0.87 0.45899999 1
7.5560002 0.93099999 0.611 1
7.6939998 0.949 0.74599999 0
7.664 0.94599998 0.866 1
7.5939999 0.93900001 0.98100001 7
5.4879999 0.63999999 0.26800001 9
7.0339999 0.81999999 0.45500001 1
7.526 0.87800002 0.60600001 1
8.092 0.94499999 0.78100002 1
0 0 0 0
9.7259998 1.138 1.253 2
5.4559999 0.60000002 0.264 10
7.0190001 0.77200001 0.45100001 1
7.4949999 0.82499999 0.60100001 1
8.0629997 0.88700002 0.77499998 2
8.8109999 0.97100002 0.98900002 2
7.5609999 0.83399999 0.97000003 0
0 0 0 50
5.7519999 0.59399998 0.36700001 11
7.467 0.77100003 0.59600002 1
8.0360003 0.82999998 0.76899999 1
8.7580004 0.90499997 0.97899997 2
9.6450005 0.99800003 1.234 2
5.3979998 0.52200001 0.25799999 12
5.724 0.55299997 0.36300001 13
7.4590001 0.72000003 0.59200001 1
8.0059996 0.773 0.76300001 1
9.3479996 0.90200001 1.041 5
9.6239996 0.92900002 1.226 2
0 0 0 50
5.7280002 0.514 0.361 14
7.4349999 0.667 0.58700001 1
7.9780002 0.71499997 0.75700003 1
9.2749996 0.83099997 1.028 5
9.5480003 0.85500002 1.212 3
5.3779998 0.44600001 0.25299999 17
5.6989999 0.472 0.35699999 14
7.402 0.61199999 0.58099997 1
7.9510002 0.65700001 0.75099999 1
9.2189999 0.76099998 1.018 5
9.5179996 0.78500003 1.204 3
5.3540001 0.40799999 0.25 25
5.6859999 0.43200001 0.354 14
7.3699999 0.55800003 0.57599998 1
7.9250002 0.59899998 0.745 1
9.191 0.69400001 1.011 5
9.4680004 0.71399999 1.193 2
0 0 0 50
5.6739998 0.391 0.35100001 14
7.3179998 0.50300002 0.56900001 1
7.8959999 0.54100001 0.73900002 2
9.1260004 0.625 1 5
9.408 0.64300001 1.181 2
5.323 0.331 0.244 32
5.664 0.35100001 0.34799999 14
6.013 0.37099999 0.465 0
7.8769999 0.484 0.73400003 2
9.0860004 0.55699998 0.991 5
9.3579998 0.57300001 1.171 3
5.316 0.29300001 0.241 39
5.6539998 0.31 0.34599999 14
0 0 0 50
7.8520002 0.42699999 0.72799999 1
9.0050001 0.48800001 0.97799999 5
9.3219995 0.50300002 1.1619999 2
5.3109999 0.255 0.23899999 41
5.638 0.26899999 0.34200001 14
6.6269999 0.31400001 0.50700003 2
7.8260002 0.36899999 0.722 2
8.9560003 0.421 0.96899998 4
9.2849998 0.433 1.153 2
5.302 0.21699999 0.237 48
5.6230001 0.228 0.33899999 13
6.3850002 0.257 0.486 2
7.7950001 0.31099999 0.71600002 1
8.948 0.35499999 0.96399999 5
9.257 0.36399999 1.146 2
5.5289998 0.186 0.245 8
5.599 0.186 0.336 14
6.2470002 0.206 0.47299999 2
7.7740002 0.25400001 0.71100003 1
8.8850002 0.287 0.954 4
0 0 0 50
5.8330002 0.154 0.25600001 12
5.8150001 0.152 0.34599999 8
6.0250001 0.155 0.454 6
7.757 0.19599999 0.70700002 2
8.8730001 0.222 0.949 4
9.1499996 0.22499999 1.125 2
6.3670001 0.122 0.278 3
6.737 0.126 0.39899999 1
7.1960001 0.132 0.53899997 1
7.7280002 0.138 0.70099998 2
8.802 0.154 0.93800002 4
9.1269999 0.155 1.118 3
6.3429999 0.075000003 0.27399999 3
6.7220001 0.075999998 0.396 1
7.1729999 0.078000002 0.53500003 1
7.71 0.079999998 0.69599998 1
8.7670002 0.086999997 0.93099999 4
9.0769997 0.086000003 1.108 2
0 0 0 50
6.7059999 0.026000001 0.39199999 1
7.1560001 0.024 0.53100002 1
7.6700001 0.022 0.69 1
8.7130003 0.021 0.92199999 4
9.0360003 0.017000001 1.1 2
6.3140001 -0.018999999 0.26899999 3
6.684 -0.023 0.389 1
7.1230001 -0.028999999 0.52600002 1
7.6529999 -0.035 0.68599999 2
8.6859999 -0.044 0.91600001 4
9.0010004 -0.050999999 1.0930001 2
6.2950001 -0.066 0.266 3
6.671 -0.074000001 0.38600001 1
7.1160002 -0.082000002 0.523 1
7.6529999 -0.093000002 0.68400002 2
8.6680002 -0.111 0.91100001 4
8.9689999 -0.12 1.086 2
6.2859998 -0.113 0.264 3
6.6570001 -0.123 0.38299999 3
7.085 -0.13600001 0.51899999 1
7.6389999 -0.15099999 0.68000001 1
8.6330004 -0.177 0.90499997 4
8.9460001 -0.18799999 1.081 2
6.2649999 -0.16 0.26100001 3
0 0 0 50
7.073 -0.189 0.51599997 2
7.6269999 -0.20900001 0.67699999 1
8.5959997 -0.241 0.89899999 4
8.934 -0.257 1.077 3
6.2519999 -0.207 0.259 3
6.632 -0.22400001 0.37799999 1
7.0549998 -0.243 0.51300001 1
7.6269999 -0.26800001 0.67500001 2
8.5290003 -0.30500001 0.88999999 3
8.8990002 -0.32600001 1.0700001 3
6.243 -0.25400001 0.257 3
6.6069999 -0.27399999 0.37599999 3
7.0380001 -0.29699999 0.50999999 1
7.743 -0.33199999 0.68400002 2
8.5050001 -0.37099999 0.88599998 3
8.8590002 -0.39300001 1.063 3
6.2270002 -0.301 0.255 3
6.5890002 -0.32300001 0.373 1
7.0159998 -0.34999999 0.50700003 1
7.7119999 -0.38999999 0.67900002 2
0 0 0 50
8.8380003 -0.46200001 1.059 7
6.2189999 -0.34999999 0.25400001 4
6.5809999 -0.375 0.37099999 1
7.0079999 -0.40400001 0.50599998 1
7.7870002 -0.456 0.68400002 3
8.4469995 -0.50199997 0.87699997 3
8.809 -0.53100002 1.054 11
6.204 -0.39700001 0.252 3
6.566 -0.42500001 0.36899999 2
6.993 -0.458 0.50300002 1
7.8169999 -0.51899999 0.68599999 3
8.3369999 -0.56099999 0.86400002 3
8.7530003 -0.597 1.046 10
6.1919999 -0.44400001 0.25099999 3
0 0 0 50
6.9840002 -0.51300001 0.50199997 1
7.3709998 -0.54799998 0.64600003 1
8.3579998 -0.62900001 0.86500001 3
8.71 -0.66299999 1.04 11
6.1799998 -0.491 0.25 3
6.5440001 -0.52600002 0.36700001 2
6.9660001 -0.56599998 0.5 1
7.8189998 -0.64200002 0.685 3
8.3129997 -0.69099998 0.86000001 3
7.1929998 -0.60500002 0.85900003 1
6.1799998 -0.54000002 0.249 3
6.5339999 -0.57700002 0.366 2
6.9549999 -0.62 0.49900001 2
7.776 -0.70200002 0.68000001 3
8.2729998 -0.755 0.85500002 3
0 0 0 50
6.1929998 -0.58999997 0.249 4
6.5279999 -0.62800002 0.36500001 2
6.9489999 -0.676 0.498 2
7.8670001 -0.773 0.68800002 3
8.2220001 -0.81699997 0.85000002 3
6.651 -0.66799998 0.79400003 59
6.1589999 -0.63599998 0.24699999 3
6.5149999 -0.67900002 0.36399999 1
6.9400001 -0.73000002 0.49700001 2
7.7989998 -0.829 0.68199998 3
6.6939998 -0.71899998 0.69199997 1
6.6030002 -0.71700001 0.78799999 83
6.1680002 -0.68699998 0.248 4
0 0 0 50
6.9289999 -0.78500003 0.49700001 1
7.7750001 -0.889 0.68000001 3
8.1219997 -0.93800002 0.83999997 3
6.6129999 -0.77200001 0.79000002 86
6.1599998 -0.73500001 0.248 4
6.4980001 -0.78200001 0.36300001 3
6.9349999 -0.84200001 0.49700001 2
7.7810001 -0.95300001 0.68199998 3
8.0889997 -1.001 0.83700001 3
6.6139998 -0.82700002 0.79100001 91
6.1490002 -0.78299999 0.24699999 3
6.4970002 -0.83399999 0.36399999 3
6.9320002 -0.898 0.498 2
7.7880001 -1.018 0.68300003 3
8.0649996 -1.0650001 0.83600003 3
0 0 0 50
6.145 -0.83200002 0.248 4
6.4860001 -0.88599998 0.36399999 3
6.9250002 -0.954 0.498 2
7.7620001 -1.079 0.68199998 3
8.0100002 -1.124 0.83200002 2
6.619 -0.93800002 0.79299998 88
6.131 -0.88099998 0.248 4
6.4850001 -0.93900001 0.36399999 3
6.9369998 -1.013 0.5 2
7.7470002 -1.141 0.68199998 3
8.0059996 -1.1900001 0.833 3
6.6269999 -0.99400002 0.796 88
6.1360002 -0.93199998 0.249 4
6.4749999 -0.991 0.36500001 3
0 0 0 50
7.7579999 -1.207 0.68400002 3
8.0089998 -1.257 0.83499998 2
6.6279998 -1.05 0.79799998 87
6.1259999 -0.98000002 0.249 4
6.473 -1.043 0.366 3
6.9990001 -1.137 0.50700003 2
7.757 -1.271 0.68599999 3
7.7750001 -1.286 0.81300002 1
0 0 0 50
6.1269999 -1.031 0.25099999 4
6.4650002 -1.096 0.36700001 3
7.0679998 -1.2079999 0.514 2
7.7280002 -1.331 0.68599999 3
7.9720001 -1.386 0.83600003 3
6.6360002 -1.164 0.80299997 89
6.1100001 -1.079 0.25099999 3
6.4660001 -1.15 0.36899999 3
7.1440001 -1.28 0.52200001 2
7.717 -1.395 0.68699998 3
7.9749999 -1.454 0.83899999 3
6.6469998 -1.222 0.80699998 93
6.0999999 -1.128 0.25299999 4
6.4580002 -1.2029999 0.37 3
7.191 -1.35 0.52700001 2
7.6760001 -1.4529999 0.68599999 4
6.7740002 -1.293 0.71499997 1
8.0240002 -1.545 0.977 28
6.0929999 -1.178 0.25400001 4
0 0 0 50
6.7839999 -1.331 0.5 1
7.6680002 -1.516 0.68800002 3
8.0050001 -1.596 0.84799999 7
8.0209999 -1.613 0.98100001 32
6.0799999 -1.226 0.25600001 3
6.4650002 -1.313 0.375 4
7.1560001 -1.464 0.52999997 2
7.6550002 -1.5779999 0.69 5
7.98 -1.659 0.84899998 14
7.9679999 -1.671 0.97799999 56
5.8909998 -1.238 0.25 5
0 0 0 50
7.1950002 -1.534 0.53600001 3
7.631 -1.6390001 0.69199997 3
7.9520001 -1.722 0.85000002 20
7.9310002 -1.732 0.97799999 76
5.9429998 -1.299 0.25400001 4
6.4809999 -1.426 0.38100001 2
7.2789998 -1.613 0.546 3
7.6030002 -1.698 0.69300002 3
7.9070001 -1.781 0.85000002 21
7.8889999 -1.7920001 0.977 94
6.099 -1.385 0.26300001 4
6.487 -1.483 0.384 2
7.283 -1.677 0.55000001 3
7.5710001 -1.757 0.69400001 3
7.8730001 -1.841 0.85100001 27
7.8470001 -1.851 0.977 114
6.1059999 -1.439 0.26699999 4
6.5040002 -1.543 0.389 1
7.2750001 -1.738 0.55299997 3
7.4910002 -1.803 0.69099998 3
7.8280001 -1.899 0.85100001 22
0 0 0 50
6.1030002 -1.4910001 0.26899999 4
6.4980001 -1.598 0.39199999 1
7.2719998 -1.8 0.55699998 3
7.4790001 -1.865 0.69499999 2
7.7870002 -1.9579999 0.85100001 23
7.7509999 -1.964 0.97600001 122
6.1079998 -1.544 0.273 4
6.5120001 -1.6569999 0.396 1
7.2779999 -1.865 0.56099999 3
7.4840002 -1.932 0.69999999 2
7.7259998 -2.0109999 0.85000002 24
7.7080002 -2.023 0.97600001 119
6.1170001 -1.6 0.27599999 4
6.5910001 -1.735 0.405 2
7.2719998 -1.927 0.565 3
7.4850001 -1.999 0.70499998 2
7.6989999 -2.072 0.85299999 22
7.6599998 -2.079 0.97500002 119
6.1240001 -1.655 0.28 4
0 0 0 50
7.2509999 -1.9859999 0.56900001 3
7.5050001 -2.0710001 0.71200001 2
7.645 -2.1259999 0.852 26
7.618 -2.1359999 0.97600001 118
6.1240001 -1.709 0.28400001 4
6.6269999 -1.8609999 0.41499999 2
7.2529998 -2.0510001 0.574 4
7.4949999 -2.135 0.71700001 2
7.599 -2.181 0.85299999 24
7.5689998 -2.191 0.977 121
6.1290002 -1.7640001 0.28799999 4
6.6729999 -1.933 0.42300001 2
7.2329998 -2.1099999 0.57700002 6
7.5100002 -2.207 0.72399998 3
7.5560002 -2.2379999 0.85500002 25
7.527 -2.2479999 0.97799999 118
6.1370001 -1.822 0.292 3
6.7290001 -2.0109999 0.43099999 2
7.2459998 -2.1800001 0.58399999 3
7.5170002 -2.2780001 0.73100001 8
7.5079999 -2.2920001 0.85600001 37
0 0 0 50
6.1560001 -1.882 0.29699999 4
6.7779999 -2.086 0.43900001 2
7.1960001 -2.2290001 0.58600003 3
7.507 -2.3429999 0.736 21
7.4819999 -2.3529999 0.86000001 62
7.4369998 -2.358 0.98000002 113
6.165 -1.9400001 0.30199999 3
6.7449999 -2.135 0.442 2
7.1479998 -2.279 0.58700001 2
7.4629998 -2.3959999 0.73900002 20
7.4400001 -2.408 0.86199999 88
7.402 -2.415 0.98299998 149
6.1760001 -1.999 0.30700001 4
6.8010001 -2.2160001 0.45100001 3
7.0949998 -2.3269999 0.58899999 3
0 0 0 50
7.3990002 -2.4630001 0.86400002 135
7.3499999 -2.4660001 0.98400003 146
6.2179999 -2.069 0.31400001 4
6.8559999 -2.2950001 0.46000001 3
7.073 -2.3840001 0.59399998 3
7.3740001 -2.503 0.74299997 21
7.3600001 -2.517 0.86699998 141
7.3140001 -2.5220001 0.98699999 145
6.2410002 -2.1329999 0.31999999 4
6.8740001 -2.3640001 0.46700001 3
7.086 -2.4530001 0.60100001 3
7.3439999 -2.5610001 0.74699998 24
7.3140001 -2.5699999 0.86900002 140
7.27 -2.575 0.98900002 145
6.27 -2.201 0.32699999 4
0 0 0 50
7.086 -2.5190001 0.60799998 3
7.3070002 -2.6159999 0.75099999 25
7.2729998 -2.6240001 0.87199998 138
7.2290001 -2.6289999 0.991 144
6.3119998 -2.273 0.33399999 4
6.8740001 -2.4909999 0.47999999 3
7.1069999 -2.5929999 0.616 2
7.257 -2.6670001 0.75300002 23
7.2290001 -2.677 0.875 140
7.1859999 -2.6830001 0.99400002 148
6.4089999 -2.368 0.345 4
6.8670001 -2.553 0.48500001 3
7.1240001 -2.6659999 0.625 3
7.2080002 -2.717 0.75599998 22
0 0 0 50
7.1440001 -2.7360001 0.99699998 150
6.428 -2.4349999 0.352 4
6.868 -2.618 0.49200001 4
7.1539998 -2.7460001 0.63499999 7
7.1799998 -2.7750001 0.75999999 25
7.1409998 -2.7809999 0.88 141
7.0949998 -2.7850001 0.99900001 141
6.5580001 -2.546 0.36399999 3
6.8649998 -2.6819999 0.49900001 3
7.1560001 -2.8139999 0.64200002 13
0 0 0 50
7.1030002 -2.8340001 0.884 140
7.0570002 -2.839 1.002 145
6.5650001 -2.6099999 0.37099999 3
6.8039999 -2.7219999 0.50099999 3
7.1240001 -2.869 0.64700001 19
7.0939999 -2.8770001 0.76700002 81
7.0580001 -2.8840001 0.88700002 136
7.0120001 -2.8889999 1.0039999 138
6.6040001 -2.688 0.37900001 3
6.757 -2.767 0.50400001 3
7.085 -2.9200001 0.65100002 20
7.0609999 -2.931 0.77200001 111
7.0170002 -2.9349999 0.88999999 133
0 0 0 50
6.598 -2.7479999 0.38499999 3
6.7470002 -2.8269999 0.50999999 2
7.0560002 -2.9760001 0.65600002 25
7.0250001 -2.984 0.77600002 125
6.9790001 -2.987 0.89399999 130
6.9229999 -2.987 1.01 141
6.5819998 -2.8039999 0.391 3
6.7719998 -2.902 0.51899999 2
7.0120001 -3.0250001 0.66000003 23
6.9819999 -3.0339999 0.77899998 125
6.9250002 -3.0309999 0.89499998 137
6.882 -3.0369999 1.013 142
0 0 0 50
6.7639999 -2.9630001 0.52499998 2
6.9819999 -3.079 0.66399997 25
6.9429998 -3.0829999 0.78299999 127
6.8909998 -3.0829999 0.89999998 133
6.842 -3.086 1.016 142
6.5830002 -2.9289999 0.40400001 4
6.7859998 -3.0380001 0.53399998 2
6.9289999 -3.122 0.667 23
6.8920002 -3.128 0.78600001 129
6.8470001 -3.131 0.903 134
6.8010001 -3.135 1.02 136
6.592 -2.9960001 0.41100001 4
6.7969999 -3.108 0.542 2
6.8829999 -3.168 0.67000002 21
0 0 0 50
6.8140001 -3.1830001 0.90700001 136
6.77 -3.188 1.024 140
6.5780001 -3.0539999 0.41600001 5
6.8210001 -3.1860001 0.551 5
6.8699999 -3.2290001 0.67699999 25
6.8150001 -3.2260001 0.79299998 132
6.7709999 -3.2290001 0.91000003 134
6.7280002 -3.2349999 1.027 136
6.5630002 -3.1099999 0.42199999 4
6.829 -3.256 0.56 11
6.809 -3.267 0.67900002 33
0 0 0 50
6.7319999 -3.2780001 0.91399997 134
6.6900001 -3.2839999 1.031 139
6.5190001 -3.152 0.426 3
6.802 -3.309 0.565 21
6.7789998 -3.319 0.68300003 74
6.7389998 -3.323 0.801 127
6.6950002 -3.326 0.91799998 134
6.6500001 -3.3310001 1.034 150
6.4759998 -3.194 0.42899999 3
0 0 0 50
6.7220001 -3.3559999 0.68599999 10
6.6950002 -3.3670001 0.80400002 149
6.6560001 -3.372 0.921 150
6.6040001 -3.3729999 1.036 150
5.2600002 -2.645 0.354 15
5.1869998 -2.6229999 0.44100001 22
5.1669998 -2.6300001 0.53299999 25
0 0 0 50
6.6069999 -3.4119999 0.92299998 93
6.5749998 -3.4230001 1.041 150
5.1609998 -2.645 0.352 34
5.1160002 -2.6370001 0.44100001 41
5.0929999 -2.6429999 0.53100002 45
5.099 -2.664 0.625 41
5.165 -2.7190001 0.72799999 16
6.5349998 -3.4690001 1.044 150
5.1020002 -2.664 0.35299999 43
5.066 -2.661 0.442 46
5.0510001 -2.6700001 0.53299999 51
5.0500002 -2.6889999 0.625 50
0 0 0 50
6.4959998 -3.513 1.0470001 142
5.046 -2.684 0.35499999 47
5.0159998 -2.684 0.44299999 50
4.9959998 -2.6900001 0.53299999 55
5.0120001 -2.7179999 0.62699997 54
5.0409999 -2.7539999 0.72399998 46
5.1869998 -2.858 0.84299999 4
5.0040002 -2.711 0.35600001 51
0 0 0 50
4.9549999 -2.717 0.53399998 55
4.9699998 -2.7449999 0.62800002 52
5.0079999 -2.7869999 0.72600001 43
6.414 -3.598 1.052 121
4.9640002 -2.7379999 0.35800001 51
4.9349999 -2.737 0.44600001 53
4.928 -2.7509999 0.53600001 57
4.9320002 -2.7720001 0.62900001 50
4.9809999 -2.8210001 0.72899997 38
6.3899999 -3.6489999 1.057 97
4.9260001 -2.7639999 0.361 55
4.8979998 -2.7650001 0.44800001 55
4.8870001 -2.776 0.53799999 60
0 0 0 50
4.9559999 -2.855 0.73100001 33
5.1100001 -2.9679999 0.85100001 8
4.895 -2.7939999 0.36300001 57
4.8709998 -2.7969999 0.44999999 64
4.8740001 -2.816 0.54100001 62
4.8759999 -2.8369999 0.63300002 54
4.9260001 -2.8870001 0.73299998 31
6.3189998 -3.734 1.062 135
4.8790002 -2.832 0.366 82
4.8579998 -2.836 0.454 71
0 0 0 50
4.862 -2.8759999 0.63700002 51
4.9369998 -2.9419999 0.741 25
6.2919998 -3.78 1.066 150
4.8509998 -2.862 0.368 61
4.8270001 -2.8640001 0.456 57
4.8330002 -2.885 0.54699999 58
4.8530002 -2.9170001 0.64099997 46
0 0 0 50
6.257 -3.8199999 1.068 150
4.8410001 -2.902 0.37200001 53
4.8210001 -2.9070001 0.46000001 53
4.8270001 -2.928 0.551 52
4.8569999 -2.9660001 0.64700001 42
4.941 -3.04 0.75300002 22
6.223 -3.859 1.0700001 147
4.8330002 -2.9430001 0.375 50
4.8169999 -2.95 0.46399999 51
4.8179998 -2.9690001 0.55500001 48
4.8499999 -3.0090001 0.65100002 40
0 0 0 50
6.1919999 -3.9000001 1.072 150
4.8340001 -2.99 0.37900001 48
4.8140001 -2.994 0.46799999 47
4.8270001 -3.02 0.56 44
4.8579998 -3.059 0.65700001 38
5.007 -3.177 0.77499998 1
10.25 -6.5560002 1.788 1
4.8330002 -3.0339999 0.38299999 45
4.8169999 -3.0409999 0.472 45
4.823 -3.063 0.565 41
0 0 0 50
9.2449999 -5.954 1.441 2
6.112 -3.967 1.073 1
4.8280001 -3.0769999 0.38600001 42
4.8210001 -3.089 0.477 42
4.8299999 -3.1129999 0.56999999 35
4.9000001 -3.1789999 0.67299998 12
9.2919998 -6.072 1.4579999 1
10.372 -6.8319998 1.8329999 2
4.8449998 -3.132 0.391 36
4.8280001 -3.138 0.48100001 34
4.849 -3.1700001 0.57599998 22
8.4309998 -5.5479999 1.166 1
9.335 -6.1869998 1.474 1
0 0 0 50
4.8610001 -3.1860001 0.396 25
4.849 -3.1949999 0.48699999 20
4.9089999 -3.2539999 0.588 1
8.4440002 -5.6329999 1.175 1
9.3310003 -6.2690001 1.483 1
10.403 -7.0430002 1.8609999 2
4.9000001 -3.256 0.40200001 11
4.9330001 -3.2950001 0.49900001 0
7.711 -5.1799998 0.92900002 1
8.4560003 -5.7179999 1.184 1
9.3570004 -6.3709998 1.4960001 2
0 0 0 50
6.5840001 -4.434 0.54400003 1
7.0669999 -4.783 0.72000003 1
7.7220001 -5.256 0.93599999 1
8.4630003 -5.7969999 1.192 2
9.3889999 -6.4759998 1.5089999 2
10.515 -7.3080001 1.902 2
6.5770001 -4.4860001 0.54699999 1
7.0890002 -4.8600001 0.72600001 1
7.73 -5.329 0.94199997 1
8.5059996 -5.9000001 1.204 1
9.4359999 -6.5910001 1.524 2
10.501 -7.3899999 1.908 2
6.5700002 -4.5380001 0.55000001 1
7.0689998 -4.9060001 0.72799999 1
0 0 0 50
8.5179996 -5.9809999 1.212 1
9.4180002 -6.6589999 1.529 2
10.622 -7.566 1.939 3
6.5669999 -4.592 0.55299997 1
7.0900002 -4.9809999 0.73400003 1
7.7470002 -5.4720001 0.954 1
8.5200005 -6.0539999 1.2180001 1
9.4490004 -6.7589998 1.54 2
10.696 -7.7080002 1.961 5
6.5749998 -4.651 0.55599999 2
7.1030002 -5.0479999 0.73900002 1
7.7459998 -5.5339999 0.958 1
8.5380001 -6.1360002 1.225 1
9.4630003 -6.8460002 1.549 2
10.724 -7.8150001 1.973 8
6.5749998 -4.7030001 0.55800003 1
7.0949998 -5.099 0.741 1
0 0 0 50
8.5530005 -6.2140002 1.232 2
9.4779997 -6.9310002 1.557 2
10.717 -7.8930001 1.979 10
6.579 -4.7579999 0.56099999 1
7.1100001 -5.164 0.745 1
7.7519999 -5.6589999 0.96499997 1
8.5410004 -6.27 1.234 2
9.4829998 -7.007 1.563 2
10.681 -7.948 1.978 12
6.566 -4.7979999 0.56099999 1
7.112 -5.2189999 0.74699998 1
7.7480001 -5.7150002 0.96799999 1
0 0 0 50
9.507 -7.0949998 1.571 2
10.678 -8.0249996 1.984 14
6.5609999 -4.8429999 0.56199998 1
7.086 -5.2509999 0.74599999 1
7.756 -5.7750001 0.97100002 1
8.5539999 -6.4050002 1.243 1
9.4759998 -7.1399999 1.569 2
10.649 -8.0780001 1.983 14
6.5549998 -4.8850002 0.56199998 2
7.099 -5.3109999 0.74900001 1
7.7579999 -5.8319998 0.97299999 1
8.5469999 -6.4580002 1.244 2
0 0 0 50
10.611 -8.1210003 1.979 14
6.546 -4.9219999 0.56199998 1
7.1030002 -5.362 0.75 1
7.7540002 -5.8790002 0.97299999 1
8.5380001 -6.507 1.244 1
9.4960003 -7.2789998 1.5779999 2
10.583 -8.1660004 1.977 14
6.5479999 -4.9660001 0.56199998 2
7.0970001 -5.402 0.75 1
7.7420001 -5.9190001 0.97299999 1
8.5200005 -6.5450001 1.242 1
0 0 0 50
10.544 -8.1990004 1.972 21
6.5440001 -5.0029998 0.56199998 1
7.0869999 -5.4369998 0.74900001 1
7.7270002 -5.9530001 0.97100002 1
8.5279999 -6.6020002 1.244 1
9.4750004 -7.3759999 1.576 2
10.519 -8.2399998 1.9680001 21
6.5240002 -5.026 0.55900002 1
7.0760002 -5.4689999 0.74699998 1
7.7069998 -5.9809999 0.96799999 1
8.5010004 -6.6290002 1.24 1
9.4289999 -7.3909998 1.569 2
0 0 0 50
6.5190001 -5.0570002 0.55800003 1
7.059 -5.494 0.74400002 1
7.724 -6.0339999 0.96899998 1
8.4890003 -6.6620002 1.237 1
9.4359999 -7.4429998 1.569 2
10.476 -8.3129997 1.96 14
6.5079999 -5.0819998 0.55599999 1
7.053 -5.5240002 0.74199998 1
7.6900001 -6.0450001 0.96399999 1
8.4770002 -6.6929998 1.235 1
9.4110003 -7.4679999 1.564 2
0 0 0 50
6.4910002 -5.0999999 0.55199999 1
7.053 -5.5570002 0.741 1
7.698 -6.086 0.963 1
8.4440002 -6.7030001 1.228 1
9.3859997 -7.487 1.558 2
10.441 -8.375 1.95 13
6.4879999 -5.125 0.55000001 1
7.039 -5.5760002 0.73699999 1
7.6599998 -6.0869999 0.95599997 1
8.4499998 -6.7410002 1.226 2
9.382 -7.5190001 1.5549999 2
0 0 0 50
6.4580002 -5.1269999 0.54500002 2
7.0149999 -5.5830002 0.73199999 1
7.6290002 -6.0890002 0.949 1
8.4160004 -6.743 1.2180001 1
9.3249998 -7.5040002 1.5420001 2
10.404 -8.4160004 1.937 15
6.4619999 -5.1529999 0.542 2
6.9889998 -5.585 0.72600001 1
0 0 0 50
8.3789997 -6.7379999 1.21 1
9.3219995 -7.5279999 1.5369999 2
10.394 -8.4359999 1.931 15
6.4320002 -5.1490002 0.537 1
6.9879999 -5.605 0.72299999 1
7.619 -6.1269999 0.94099998 1
8.3590002 -6.744 1.2029999 1
9.2849998 -7.5209999 1.527 2
10.378 -8.4449997 1.9220001 14
6.4190001 -5.1550002 0.53200001 2
6.9689999 -5.6069999 0.71700001 1
0 0 0 50
8.3290005 -6.737 1.194 1
9.2349997 -7.4980001 1.5140001 2
10.354 -8.4440002 1.9119999 14
6.401 -5.1539998 0.52700001 1
6.9439998 -5.5999999 0.71100003 2
7.5560002 -6.1069999 0.92500001 1
8.3240004 -6.7459998 1.188 2
9.2180004 -7.4980001 1.505 2
10.337 -8.4429998 1.903 11
6.3899999 -5.1560001 0.52200001 2
0 0 0 50
7.5339999 -6.099 0.917 1
8.2869997 -6.7259998 1.178 2
9.1750002 -7.4720001 1.492 2
10.33 -8.4460001 1.8940001 9
6.369 -5.1469998 0.51599997 2
6.875 -5.5619998 0.69400001 1
7.4889998 -6.0679998 0.90700001 1
0 0 0 50
9.1389999 -7.447 1.48 2
10.297 -8.4219999 1.88 8
6.3649998 -5.1490002 0.51099998 2
6.8769999 -5.5679998 0.69 1
7.4819999 -6.066 0.90100002 1
8.2200003 -6.6789999 1.1569999 1
9.1059999 -7.4200001 1.467 2
10.269 -8.3970003 1.867 5
6.3280001 -5.1199999 0.50400001 2
6.8540001 -5.5489998 0.68199998 1
7.4590001 -6.0469999 0.89200002 1
0 0 0 50
9.0790005 -7.3930001 1.455 2
10.194 -8.3280001 1.845 4
6.3119998 -5.1059999 0.498 2
6.848 -5.5419998 0.676 1
7.4200001 -6.0110002 0.88200003 1
8.1529999 -6.6149998 1.1339999 2
9.0459995 -7.3569999 1.443 2
10.111 -8.2489996 1.821 3
6.2989998 -5.0910001 0.49200001 2
6.8119998 -5.506 0.66799998 1
0 0 0 50
8.1269999 -6.5840001 1.123 2
9.0019999 -7.3080001 1.427 2
10.028 -8.1639996 1.796 2
6.2750001 -5.0640001 0.48500001 2
6.7810001 -5.4720001 0.65899998 1
7.382 -5.96 0.86500001 1
8.0839996 -6.5349998 1.11 1
0 0 0 50
9.993 -8.1149998 1.781 2
6.2579999 -5.0409999 0.479 1
6.7680001 -5.4489999 0.65200001 1
7.3559999 -5.9250002 0.85600001 1
8.0570002 -6.4949999 1.099 1
8.9060001 -7.1919999 1.395 2
9.9469995 -8.052 1.762 2
6.2420001 -5.0149999 0.47299999 2
6.7480001 -5.4169998 0.64499998 1
7.342 -5.8959999 0.84799999 1
8.052 -6.4699998 1.091 1
8.8719997 -7.1389999 1.382 2
0 0 0 50
6.2290001 -4.9879999 0.46599999 2
6.71 -5.369 0.63499999 1
7.3070002 -5.8460002 0.83700001 1
7.9910002 -6.3969998 1.075 1
8.8269997 -7.073 1.3660001 2
9.8360004 -7.8969998 1.722 2
6.2069998 -4.9520001 0.45899999 2
6.71 -5.348 0.62900001 1
7.296 -5.8130002 0.829 1
7.9640002 -6.3460002 1.064 2
8.8070002 -7.0250001 1.354 2
0 0 0 50
6.2069998 -4.9299998 0.454 2
6.6760001 -5.296 0.62 1
7.2659998 -5.7610002 0.81900001 1
7.9390001 -6.2950001 1.053 1
8.7489996 -6.9419999 1.336 2
9.7740002 -7.7659998 1.691 2
6.1919999 -4.8940001 0.44800001 2
6.651 -5.2490001 0.61199999 1
7.243 -5.711 0.81 2
7.888 -6.2189999 1.039 1
8.7410002 -6.895 1.326 1
0 0 0 50
6.1750002 -4.8540001 0.442 2
6.6339998 -5.2059999 0.60500002 1
7.2340002 -5.671 0.80199999 1
7.8829999 -6.178 1.03 1
8.6879997 -6.8109999 1.309 1
9.6330004 -7.5580001 1.646 2
6.1589999 -4.8119998 0.43599999 1
6.618 -5.1620002 0.59799999 1
7.197 -5.6059999 0.792 1
7.8590002 -6.118 1.02 2
8.658 -6.7410002 1.296 1
9.6440001 -7.513 1.637 2
0 0 0 50
6.6009998 -5.1129999 0.59100002 1
7.178 -5.552 0.78299999 2
7.8520002 -6.0689998 1.012 1
8.6330004 -6.6719999 1.284 1
9.5839996 -7.4109998 1.617 2
6.138 -4.7309999 0.42500001 1
6.5780001 -5.0580001 0.583 1
7.152 -5.4910002 0.77399999 1
7.8200002 -5.9980001 1.001 1
8.5970001 -6.5910001 1.27 2
9.5579996 -7.3309999 1.603 2
6.1329999 -4.691 0.41999999 2
6.5560002 -5.0019999 0.57599998 2
0 0 0 50
7.796 -5.9299998 0.99000001 1
8.5710001 -6.5170002 1.258 2
9.4989996 -7.223 1.5829999 2
6.1209998 -4.6440001 0.41499999 2
6.5580001 -4.9619999 0.57099998 2
7.125 -5.3800001 0.759 1
7.7909999 -5.875 0.98299998 1
8.5640001 -6.4530001 1.249 2
9.4729996 -7.1370001 1.569 2
6.1009998 -4.5890002 0.40900001 2
6.5539999 -4.9159999 0.56599998 2
0 0 0 50
7.7620001 -5.8000002 0.97299999 1
8.5120001 -6.3540001 1.234 2
9.4569998 -7.0580001 1.557 2
6.086 -4.5359998 0.405 3
6.5380001 -4.8590002 0.56 2
7.072 -5.2420001 0.74299997 1
7.7249999 -5.717 0.96200001 1
8.493 -6.277 1.223 2
9.4040003 -6.948 1.539 2
6.0669999 -4.4780002 0.39899999 9
6.5279999 -4.803 0.55500001 1
7.0700002 -5.1880002 0.73799998 2
0 0 0 50
8.4619999 -6.1900001 1.211 2
9.3789997 -6.8569999 1.526 2
6.0739999 -4.4380002 0.396 51
6.4990001 -4.7329998 0.54799998 2
7.0539999 -5.1230001 0.73100001 2
7.7069998 -5.585 0.94800001 1
8.4619999 -6.1240001 1.204 2
9.3500004 -6.7600002 1.513 2
6.086 -4.3990002 0.39399999 150
6.5180001 -4.6950002 0.546 2
7.0440001 -5.0599999 0.72500002 2
7.6929998 -5.5139999 0.94 2
8.4499998 -6.0469999 1.196 2
9.3310003 -6.6700001 1.502 2
6.1209998 -4.3759999 0.39300001 28
6.5139999 -4.6399999 0.542 2
7.0040002 -4.974 0.71700001 1
6.0289998 -4.2709999 0.73199999 0
0 0 0 50
9.3009996 -6.5700002 1.489 2
6.132 -4.3340001 0.391 13
6.5170002 -4.5879998 0.53899997 2
7.0110002 -4.921 0.71399999 2
6.0749998 -4.2519999 0.73400003 0
8.415 -5.8800001 1.178 2
9.2690001 -6.467 1.477 2
6.1430001 -4.289 0.389 8
6.5009999 -4.5219998 0.53500003 2
7.007 -4.8579998 0.70899999 2
7.6529999 -5.2909999 0.92000002 1
8.3859997 -5.7859998 1.168 2
9.2779999 -6.3930001 1.471 2
6.1329999 -4.23 0.38600001 3
6.506 -4.4689999 0.53299999 2
0 0 0 50
7.6490002 -5.2220001 0.91500002 1
8.368 -5.6999998 1.161 2
9.2550001 -6.2940001 1.461 2
6.1269999 -4.1719999 0.384 2
6.5190001 -4.421 0.53100002 2
7.0159998 -4.7410002 0.70300001 2
7.6570001 -5.1589999 0.912 2
8.3699999 -5.6259999 1.156 2
9.2419996 -6.2010002 1.452 2
6.1220002 -4.1129999 0.382 2
4.9520001 -3.3139999 0.40099999 0
4.8969998 -3.2650001 0.48899999 7
0 0 0 50
8.3789997 -5.5549998 1.152 1
9.2440004 -6.1170001 1.447 2
4.9710002 -3.2950001 0.30899999 6
4.8730001 -3.2160001 0.39399999 22
4.8499999 -3.1889999 0.48199999 28
4.8559999 -3.1819999 0.574 24
4.9359999 -3.2260001 0.676 1
9.2410002 -6.0279999 1.441 2
4.8889999 -3.1949999 0.303 26
4.842 -3.151 0.38999999 33
4.8280001 -3.1289999 0.47799999 37
4.8319998 -3.122 0.56900001 35
4.8720002 -3.1389999 0.66500002 23
0 0 0 50
4.8759999 -3.142 0.301 36
4.835 -3.1010001 0.38800001 41
4.8200002 -3.079 0.47600001 43
4.829 -3.0739999 0.56699997 42
4.8610001 -3.086 0.662 34
5.007 -3.171 0.77499998 2
4.8649998 -3.0880001 0.30000001 43
4.8299999 -3.052 0.38699999 47
4.8140001 -3.029 0.47499999 48
4.8260002 -3.026 0.565 44
4.8579998 -3.0369999 0.65899998 38
4.9850001 -3.109 0.76999998 15
4.8610001 -3.039 0.30000001 48
4.8309999 -3.006 0.38600001 50
4.8189998 -2.9849999 0.47400001 51
4.822 -2.977 0.56300002 47
4.8610001 -2.9920001 0.65799999 39
4.9559999 -3.043 0.76300001 19
4.8569999 -2.99 0.29899999 51
4.829 -2.9579999 0.38600001 52
0 0 0 50
4.8309999 -2.9349999 0.56300002 50
4.8629999 -2.9449999 0.65700001 41
4.9580002 -2.9949999 0.76200002 19
4.8579998 -2.9419999 0.29899999 55
4.8369999 -2.915 0.38600001 55
4.829 -2.898 0.47400001 62
4.8379998 -2.8929999 0.56300002 53
4.8660002 -2.8989999 0.65600002 45
4.9640002 -2.95 0.76099998 19
4.868 -2.901 0.30000001 60
4.848 -2.8740001 0.38699999 59
4.836 -2.8540001 0.47400001 75
4.8509998 -2.852 0.56400001 58
4.8850002 -2.862 0.65700001 51
4.9770002 -2.908 0.76099998 20
4.882 -2.8610001 0.30199999 64
4.868 -2.8380001 0.389 111
4.8559999 -2.8180001 0.47600001 84
4.8660002 -2.812 0.565 56
0 0 0 50
5.0050001 -2.875 0.764 23
4.902 -2.8239999 0.30399999 64
4.888 -2.8010001 0.38999999 61
4.8850002 -2.786 0.479 67
4.8990002 -2.783 0.56900001 54
4.9439998 -2.799 0.66399997 47
5.027 -2.8380001 0.76700002 27
4.9250002 -2.7880001 0.30599999 62
4.9169998 -2.7690001 0.39300001 58
4.9159999 -2.756 0.48199999 62
0 0 0 50
4.9819999 -2.7709999 0.66799998 48
5.0650001 -2.8080001 0.77100003 29
4.9640002 -2.76 0.30899999 57
4.9499998 -2.7379999 0.39700001 56
4.9489999 -2.724 0.48500001 58
4.9689999 -2.724 0.57700002 54
5.0190001 -2.7409999 0.67299998 47
5.1069999 -2.7809999 0.77700001 17
5.0040002 -2.733 0.31299999 55
4.9889998 -2.71 0.40099999 55
4.9879999 -2.697 0.48899999 58
5.013 -2.6989999 0.58200002 52
5.0609999 -2.714 0.67799997 46
0 0 0 0
5.0440001 -2.704 0.317 52
5.0289998 -2.681 0.405 53
5.0310001 -2.6689999 0.49399999 54
0 0 0 50
5.1149998 -2.691 0.685 24
6.5679998 -3.4449999 0.99800003 140
5.0949998 -2.6800001 0.32100001 49
5.0830002 -2.6589999 0.41 49
5.0739999 -2.641 0.49900001 48
5.1160002 -2.651 0.59399998 35
5.2449999 -2.707 0.70300001 5
6.6030002 -3.3970001 1.003 143
5.1560001 -2.6600001 0.32699999 41
5.1389999 -2.6359999 0.41600001 41
5.1440001 -2.6259999 0.50700003 31
5.2220001 -2.654 0.60699999 11
6.6659999 -3.3740001 0.89399999 144
6.6430001 -3.3499999 1.01 144
5.2270002 -2.6440001 0.333 21
0 0 0 50
5.276 -2.6400001 0.52100003 5
6.7189999 -3.3469999 0.78299999 148
6.6960001 -3.323 0.89899999 145
6.6739998 -3.299 1.0140001 150
6.4770002 -3.211 0.41499999 4
6.7789998 -3.342 0.55299997 20
6.7709999 -3.3210001 0.671 58
6.7550001 -3.2980001 0.78799999 145
6.7379999 -3.276 0.90499997 146
6.7160001 -3.2539999 1.021 145
6.5139999 -3.165 0.41999999 3
6.8080001 -3.2880001 0.55800003 14
6.8109999 -3.273 0.67699999 39
0 0 0 50
6.7719998 -3.2260001 0.91000003 143
6.7540002 -3.2049999 1.027 116
6.5450001 -3.1140001 0.42500001 4
6.842 -3.237 0.56300002 12
6.849 -3.224 0.68199998 31
6.8309999 -3.2 0.80000001 120
6.8099999 -3.177 0.917 119
6.7870002 -3.154 1.033 117
6.573 -3.063 0.43000001 5
6.8839998 -3.1889999 0.56900001 13
6.8930001 -3.175 0.68900001 29
6.8649998 -3.148 0.80500001 124
6.8410001 -3.1229999 0.92199999 117
0 0 0 50
6.6139998 -3.0150001 0.435 6
6.9050002 -3.1289999 0.57300001 9
6.9190001 -3.119 0.69400001 28
6.902 -3.096 0.81099999 126
6.8850002 -3.075 0.92900002 117
6.8559999 -3.049 1.045 121
6.6560001 -2.9679999 0.44100001 5
6.9330001 -3.072 0.57800001 7
6.9749999 -3.0739999 0.70200002 25
6.9530001 -3.049 0.81999999 123
6.921 -3.0220001 0.93599999 120
6.901 -3.0009999 1.053 119
6.6810002 -2.9119999 0.44600001 7
6.9689999 -3.0190001 0.58399999 7
7.0009999 -3.017 0.70700002 29
6.9920001 -2.9979999 0.82599998 124
6.9569998 -2.9690001 0.94199997 121
6.9359999 -2.948 1.0599999 119
6.7280002 -2.865 0.45199999 6
6.974 -2.9530001 0.58700001 5
0 0 0 50
7.0289998 -2.944 0.833 122
7.006 -2.921 0.95099998 117
6.98 -2.898 1.068 121
6.7410002 -2.8050001 0.45699999 7
6.9980001 -2.8940001 0.59299999 4
7.0749998 -2.9100001 0.71899998 27
7.066 -2.891 0.83999997 128
7.0479999 -2.8699999 0.958 117
7.0180001 -2.845 1.075 118
6.7870002 -2.757 0.463 6
7.0209999 -2.835 0.59799999 2
7.119 -2.858 0.727 23
7.1079998 -2.8380001 0.847 127
7.0840001 -2.816 0.96499997 121
7.0679998 -2.7969999 1.084 127
6.7950001 -2.694 0.46700001 7
7.0489998 -2.777 0.60299999 3
7.1570001 -2.803 0.73400003 24
7.1479998 -2.7850001 0.85399997 127
7.1269999 -2.763 0.97299999 121
7.1030002 -2.7420001 1.091 123
6.8369999 -2.6429999 0.47400001 7
7.0689998 -2.7160001 0.60799998 2
7.2069998 -2.753 0.74199998 25
7.1890001 -2.7309999 0.861 127
7.1609998 -2.7079999 0.98000002 121
7.138 -2.687 1.098 121
6.8629999 -2.5869999 0.479 5
7.0949998 -2.6570001 0.61400002 2
7.2480001 -2.698 0.74900001 26
7.2270002 -2.6760001 0.86900002 128
0 0 0 50
7.1810002 -2.6340001 1.107 127
6.8829999 -2.5280001 0.484 6
7.1329999 -2.6029999 0.62 3
7.2750001 -2.6389999 0.75400001 24
7.2690001 -2.6210001 0.87599999 129
7.2470002 -2.5999999 0.99599999 121
7.223 -2.5799999 1.115 119
6.915 -2.4719999 0.49000001 6
7.1420002 -2.5369999 0.625 2
7.3179998 -2.5840001 0.76200002 24
7.309 -2.566 0.884 128
7.2880001 -2.5450001 1.0039999 126
7.263 -2.5250001 1.124 127
6.9260001 -2.4100001 0.49399999 8
7.1880002 -2.484 0.63200003 3
7.3569999 -2.527 0.76899999 23
7.3499999 -2.5109999 0.89099997 136
7.329 -2.49 1.012 128
7.3000002 -2.4690001 1.131 126
6.9850001 -2.3629999 0.50199997 6
7.2150002 -2.425 0.63800001 3
7.3969998 -2.471 0.77700001 25
7.3889999 -2.454 0.89899999 134
7.3639998 -2.4319999 1.0190001 127
7.3410001 -2.4130001 1.14 125
7.0029998 -2.302 0.50700003 5
7.2389998 -2.3640001 0.64300001 3
7.4400001 -2.414 0.78399998 24
7.4359999 -2.3989999 0.90799999 135
7.4109998 -2.3770001 1.028 125
7.382 -2.3559999 1.148 122
7.0419998 -2.2479999 0.514 4
7.276 -2.306 0.64999998 3
7.4899998 -2.359 0.79299998 26
7.4770002 -2.3410001 0.91500002 138
7.4439998 -2.3169999 1.035 130
7.4200001 -2.2980001 1.156 128
0 0 0 50
7.316 -2.2509999 0.65700001 3
7.5320001 -2.302 0.80000001 27
7.5149999 -2.283 0.92299998 135
7.493 -2.263 1.044 130
7.4629998 -2.2420001 1.165 128
7.1009998 -2.132 0.52499998 3
7.3520002 -2.1919999 0.66399997 2
7.579 -2.2449999 0.80800003 23
7.5599999 -2.2249999 0.93099999 111
7.5300002 -2.204 1.052 107
7.5029998 -2.184 1.174 101
7.158 -2.082 0.53299999 3
7.3600001 -2.125 0.66799998 2
7.6160002 -2.184 0.81599998 22
7.6030002 -2.1670001 0.93900001 115
7.5780001 -2.1470001 1.061 111
7.5510001 -2.128 1.183 105
0 0 0 50
7.395 -2.066 0.67400002 2
7.6570001 -2.1240001 0.82300001 27
7.6469998 -2.108 0.94800001 114
7.6160002 -2.0869999 1.069 108
7.5890002 -2.0680001 1.191 106
7.2249999 -1.966 0.54500002 3
7.4260001 -2.006 0.68000001 2
7.6999998 -2.0650001 0.83099997 21
7.6869998 -2.0480001 0.95499998 113
7.6589999 -2.0280001 1.0779999 110
7.6350002 -2.01 1.201 106
7.2459998 -1.904 0.55000001 3
7.4580002 -1.9450001 0.68699998 2
0 0 0 50
7.7329998 -1.989 0.96399999 113
7.7049999 -1.969 1.087 108
7.6719999 -1.949 1.209 101
7.2589998 -1.84 0.55400002 3
7.494 -1.885 0.69300002 2
7.7849998 -1.944 0.84600002 20
7.7740002 -1.929 0.97100002 115
7.7509999 -1.91 1.095 107
7.7189999 -1.891 1.2180001 102
0 0 0 50
7.5110002 -1.821 0.69800001 2
7.8340001 -1.885 0.85399997 28
7.8200002 -1.868 0.98000002 115
7.7979999 -1.851 1.104 112
7.7670002 -1.832 1.228 101
7.3410001 -1.727 0.56699997 3
7.566 -1.765 0.70599997 3
7.868 -1.822 0.861 27
7.8639998 -1.808 0.98799998 121
7.8369999 -1.789 1.112 113
0 0 0 50
7.355 -1.663 0.57099998 3
7.5700002 -1.698 0.70899999 3
7.9260001 -1.7640001 0.87 21
7.9120002 -1.747 0.99599999 119
7.8800001 -1.728 1.1210001 111
7.8530002 -1.711 1.245 104
7.369 -1.6 0.57499999 3
7.6030002 -1.637 0.71499997 3
7.9710002 -1.702 0.87800002 22
7.9590001 -1.687 1.005 119
0 0 0 50
7.9000001 -1.651 1.255 107
7.3759999 -1.535 0.579 3
7.6589999 -1.58 0.72299999 3
8.0170002 -1.64 0.88499999 23
8.0019999 -1.624 1.013 117
7.9720001 -1.6059999 1.138 114
7.9450002 -1.589 1.2640001 115
7.4520001 -1.483 0.588 3
7.7129998 -1.521 0.73100001 3
8.0539999 -1.575 0.89200002 21
0 0 0 50
6.7550001 -1.3 0.96600002 71
6.7849998 -1.296 1.081 65
7.5 -1.425 0.59399998 3
7.7420001 -1.4579999 0.736 3
6.7989998 -1.2690001 0.755 6
6.6830001 -1.237 0.84899998 71
6.7600002 -1.242 0.96899998 64
6.8340001 -1.245 1.09 53
0 0 0 50
7.7979999 -1.399 0.74400002 3
6.671 -1.186 0.74299997 22
6.645 -1.171 0.847 77
6.8720002 -1.202 0.986 59
6.9130001 -1.199 1.105 55
7.552 -1.301 0.60399997 3
7.8429999 -1.339 0.75099999 3
6.6529999 -1.125 0.74299997 36
0 0 0 50
6.9879999 -1.161 1.005 52
7 -1.153 1.12 52
7.598 -1.242 0.61000001 3
7.902 -1.279 0.759 3
6.6399999 -1.064 0.74299997 46
6.6170001 -1.051 0.84600002 77
0 0 0 50
7.079 -1.104 1.1339999 82
7.6149998 -1.178 0.61299998 3
7.9330001 -1.215 0.764 3
6.6300001 -1.005 0.74400002 63
6.6079998 -0.991 0.847 71
7.1069999 -1.056 1.025 94
7.0970001 -1.045 1.138 88
7.5910001 -1.108 0.61400002 3
7.9850001 -1.153 0.77100003 3
0 0 0 50
6.6020002 -0.93300003 0.84799999 60
7.1160002 -0.99599999 1.028 94
7.1110001 -0.986 1.142 89
7.6030002 -1.044 0.61699998 3
8.0179996 -1.0880001 0.77700001 3
6.6149998 -0.88700002 0.745 77
6.6059999 -0.87599999 0.84899998 40
7.1160002 -0.93400002 1.029 87
7.112 -0.92400002 1.143 86
7.5669999 -0.972 0.616 2
8.0609999 -1.023 0.78299999 3
0 0 0 50
6.6090002 -0.81999999 0.85100001 34
7.1079998 -0.87199998 1.029 85
7.1030002 -0.86199999 1.143 83
7.5609999 -0.90600002 0.61699998 2
8.0979996 -0.958 0.78799999 3
6.6059999 -0.77200001 0.74699998 87
0 0 0 50
7.098 -0.81 1.029 83
7.0929999 -0.80000001 1.143 81
7.3959999 -0.82300001 0.60500002 2
8.1379995 -0.89300001 0.79400003 3
6.5869999 -0.71399999 0.74599999 83
6.677 -0.71399999 0.86299998 29
7.066 -0.74599999 1.026 74
7.0669999 -0.73699999 1.14 73
6.6620002 -0.68400002 0.54699999 8
0 0 0 50
6.6550002 -0.66399997 0.755 26
6.6680002 -0.65600002 0.86199999 97
6.6999998 -0.64999998 0.97399998 50
6.9970002 -0.67000002 1.1289999 21
7.5359998 -0.70899999 0.62 2
8.2010002 -0.75999999 0.80299997 3
6.9720001 -0.63599998 0.792 5
6.7470002 -0.60600001 0.87400001 18
6.7010002 -0.59299999 0.97500002 83
0 0 0 50
7.4460001 -0.63700002 0.61400002 2
8.243 -0.69300002 0.80900002 3
7.2589998 -0.60000002 0.82599998 0
8.6669998 -0.70499998 1.124 22
8.6470003 -0.69300002 1.2589999 102
8.6120005 -0.67900002 1.392 96
7.335 -0.565 0.60600001 2
0 0 0 50
8.5649996 -0.63599998 0.97600001 3
8.7180004 -0.63599998 1.132 23
8.6999998 -0.62400001 1.268 102
8.6610003 -0.61000001 1.401 95
7.3889999 -0.50700003 0.61199999 2
8.2159996 -0.55299997 0.80900002 3
8.5769997 -0.56599998 0.97899997 2
8.7690001 -0.56699997 1.1390001 21
8.7480001 -0.55400002 1.276 103
8.717 -0.542 1.411 96
7.4050002 -0.44600001 0.61400002 2
0 0 0 50
8.6160002 -0.49599999 0.98500001 2
8.8290005 -0.49700001 1.148 23
8.8030005 -0.484 1.285 105
8.7709999 -0.472 1.421 96
7.4099998 -0.384 0.616 2
8.382 -0.42399999 0.82700002 4
8.6490002 -0.426 0.98900002 2
8.8760004 -0.426 1.156 16
8.8529997 -0.41299999 1.293 106
0 0 0 50
7.4180002 -0.322 0.61699998 2
8.3950005 -0.35299999 0.82999998 4
8.6739998 -0.354 0.99299997 3
8.9320002 -0.35299999 1.164 21
8.9069996 -0.34200001 1.302 104
8.8699999 -0.329 1.439 95
7.4200001 -0.26100001 0.61799997 1
8.4060001 -0.28400001 0.83200002 4
8.7089996 -0.28400001 0.99800003 3
0 0 0 50
8.9580002 -0.26899999 1.311 100
8.9239998 -0.257 1.449 93
7.4400001 -0.199 0.62099999 1
8.4359999 -0.215 0.83600003 4
8.7209997 -0.212 1.001 3
9.0380001 -0.20900001 1.1799999 17
9.0100002 -0.197 1.319 98
8.9799995 -0.185 1.4579999 95
7.4460001 -0.138 0.62199998 1
8.5039997 -0.147 0.84299999 4
0 0 0 50
9.0909996 -0.13500001 1.187 15
9.0719995 -0.124 1.329 98
9.0360003 -0.113 1.469 96
7.4650002 -0.077 0.62400001 1
8.5649996 -0.078000002 0.85000002 4
8.8039999 -0.07 1.012 3
9.1470003 -0.061000001 1.196 15
9.1219997 -0.050000001 1.337 95
9.085 -0.039000001 1.477 88
7.4920001 -0.017000001 0.62699997 1
0 0 0 50
8.8610001 0.001 1.0190001 3
9.2019997 0.012 1.2029999 15
9.1759996 0.022 1.346 90
9.1479998 0.034000002 1.488 89
7.4910002 0.044 0.62800002 1
8.6000004 0.059999999 0.85500002 4
8.915 0.072999999 1.026 4
9.2580004 0.086999997 1.212 12
0 0 0 50
9.1960001 0.108 1.497 85
7.506 0.105 0.63 1
8.5530005 0.13 0.85100001 4
9.0059996 0.147 1.0369999 4
9.3129997 0.163 1.22 15
9.2889996 0.17299999 1.364 95
9.2510004 0.184 1.507 88
7.5170002 0.16599999 0.63099998 2
8.4490004 0.19599999 0.84100002 3
9.0469999 0.22 1.043 4
9.3760004 0.23899999 1.229 15
0 0 0 50
9.3070002 0.259 1.517 85
7.5380001 0.227 0.634 2
8.4549999 0.26499999 0.84200001 3
9.1190004 0.296 1.052 4
9.4289999 0.31600001 1.2359999 18
9.4020004 0.32699999 1.382 92
9.3620005 0.336 1.527 85
7.5549998 0.28799999 0.63599998 2
8.1190004 0.31900001 0.80900002 2
9.1660004 0.37 1.058 4
0 0 0 50
9.4630003 0.403 1.392 90
9.427 0.41299999 1.538 84
7.5640001 0.34799999 0.63700002 1
8.1129999 0.38299999 0.81 2
9.2200003 0.44499999 1.0650001 4
9.5380001 0.472 1.252 13
9.533 0.48199999 1.403 86
9.4790001 0.491 1.548 81
0 0 0 50
8.1239996 0.44800001 0.81099999 1
9.2480001 0.51999998 1.069 5
9.5979996 0.551 1.261 11
9.5769997 0.56099999 1.411 79
9.5410004 0.56900001 1.559 80
7.6079998 0.472 0.64200002 2
8.1820002 0.51599997 0.81800002 2
9.309 0.597 1.077 5
9.6520004 0.62900001 1.2690001 11
9.6409998 0.639 1.4220001 69
0 0 0 50
7.6059999 0.53100002 0.64200002 2
8.177 0.57999998 0.81800002 2
9.3629999 0.67400002 1.084 5
9.6920004 0.70899999 1.276 10
9.7040005 0.72000003 1.432 58
9.6569996 0.727 1.58 78
7.6240001 0.59200001 0.64399999 2
8.1859999 0.64399999 0.81999999 1
9.3970003 0.74900001 1.089 5
0 0 0 50
9.7510004 0.79799998 1.4400001 52
9.7130003 0.80699998 1.591 74
7.6440001 0.65200001 0.64600003 1
8.2089996 0.70899999 0.82300001 1
9.4799995 0.829 1.099 5
9.7989998 0.86799997 1.2920001 5
9.809 0.87900001 1.45 46
9.7679996 0.88700002 1.601 71
7.6609998 0.713 0.64899999 1
8.1990004 0.77100003 0.82300001 1
0 0 0 50
9.8430004 0.94700003 1.299 4
9.8959999 0.963 1.465 42
9.823 0.96700001 1.612 69
7.6789999 0.77399999 0.65100002 1
8.2290001 0.83700001 0.82599998 1
9.559 0.98199999 1.1109999 5
7.6339998 0.79299998 1.0089999 4
9.9490004 1.044 1.474 41
9.8800001 1.048 1.623 67
0 0 0 50
8.2580004 0.903 0.83099997 1
9.6289997 1.064 1.1210001 5
7.5890002 0.847 1.0039999 2
7.572 0.85299999 1.123 17
9.948 1.132 1.636 69
7.7119999 0.89499998 0.65600002 1
8.2770004 0.96899998 0.83399999 1
9.6549997 1.14 1.125 3
7.6129999 0.90700001 1.008 9
7.5159998 0.90399998 1.1160001 16
0 0 0 50
7.6999998 0.95200002 0.65600002 1
7.665 0.95499998 0.773 1
7.6209998 0.95700002 0.88999999 0
7.5409999 0.95499998 1 14
7.4299998 0.949 1.105 16
7.5339999 0.97100002 1.242 10
7.6900001 1.0089999 0.65600002 1
7.6220002 1.007 0.76999998 5
7.5739999 1.008 0.88599998 1
7.5040002 1.006 0.99699998 14
0 0 0 50
7.5450001 1.029 1.2460001 13
7.6799998 1.0650001 0.65600002 1
7.6110001 1.063 0.77100003 1
7.5770001 1.0650001 0.88700002 1
7.5240002 1.0650001 1.001 14
7.5170002 1.073 1.122 16
7.4699998 1.075 1.2359999 11
0 0 0 50
7.6459999 1.124 0.77600002 1
7.598 1.125 0.89200002 0
7.7350001 1.153 1.031 1
7.4860001 1.124 1.119 20
7.4660001 1.13 1.237 7
7.789 1.196 0.66900003 1
8.3979998 1.296 0.85399997 1
9.6569996 1.501 1.136 5
7.5890002 1.187 1.0140001 11
