# .PCD v0.7 - Point Cloud Data file format
VERSION 0.7
FIELDS x y z intensity
SIZE 4 4 4 4
TYPE F F F F
COUNT 1 1 1 1
WIDTH 1838
HEIGHT 1
VIEWPOINT 0 0 0 1 0 0 0
POINTS 1838
DATA ascii
14.428 -3.9849999 2.9820001 10
14.28 -3.927 3.191 8
0 0 0 50
7.2540002 -1.973 1.1390001 8
11.591 -3.135 2.0090001 1
13.065 -3.516 2.4790001 1
14.618 -3.914 3.017 11
14.446 -3.8510001 3.223 7
7.23 -1.918 1.018 19
10.404 -2.743 1.632 1
11.631 -3.0480001 2.0139999 1
13.071 -3.4070001 2.477 1
14.794 -3.8369999 3.0480001 12
14.617 -3.773 3.256 8
0 0 0 50
10.426 -2.661 1.6339999 1
11.634 -2.951 2.0109999 1
13.158 -3.3180001 2.49 1
14.916 -3.7420001 3.069 1
14.786 -3.691 3.289 8
9.4969997 -2.3599999 1.334 1
10.432 -2.575 1.633 1
9.3219995 -2.286 1.61 0
13.156 -3.207 2.487 1
14.994 -3.635 3.082 1
0 0 0 50
9.5139999 -2.2839999 1.335 2
9.302 -2.217 1.454 36
9.2559996 -2.191 1.597 42
9.2939997 -2.187 1.755 0
15.041 -3.5190001 3.0880001 1
17.24 -4.0120001 3.826 0
9.4329996 -2.184 1.323 5
9.2390003 -2.1240001 1.443 60
0 0 0 50
9.2989998 -2.109 1.7539999 12
15.116 -3.408 3.0999999 1
17.409 -3.9030001 3.859 0
9.3959999 -2.096 1.317 34
9.2390003 -2.0450001 1.442 71
9.2110004 -2.0250001 1.586 70
9.3030005 -2.0320001 1.753 18
15.072 -3.2709999 3.0880001 1
17.42 -3.757 3.8570001 4
9.4119997 -2.02 1.319 35
9.2510004 -1.97 1.443 71
0 0 0 50
9.3439999 -1.961 1.76 4
15.157 -3.161 3.1029999 1
17.569 -3.641 3.8870001 8
9.4890003 -1.956 1.329 3
9.3079996 -1.903 1.451 48
9.3140001 -1.89 1.602 42
13.238 -2.6659999 2.4909999 1
15.151 -3.03 3.099 1
17.608 -3.4979999 3.892 3
9.592 -1.895 1.3430001 1
9.4709997 -1.8559999 1.476 11
9.4569998 -1.8380001 1.626 0
13.297 -2.5650001 2.5009999 1
15.164 -2.904 3.0999999 1
17.85 -3.395 3.9430001 6
0 0 0 50
10.562 -1.98 1.646 1
11.791 -2.1919999 2.026 1
13.267 -2.447 2.494 1
15.374 -2.8139999 3.141 2
17.799 -3.234 3.9289999 6
9.625 -1.738 1.347 1
10.591 -1.895 1.65 1
11.816 -2.096 2.03 1
13.307 -2.3399999 2.5 1
0 0 0 50
17.74 -3.0710001 3.914 6
9.6479998 -1.66 1.35 1
10.608 -1.808 1.652 1
11.818 -1.995 2.029 1
13.3 -2.2249999 2.4979999 1
15.06 -2.4979999 3.0739999 4
17.576 -2.892 3.8759999 2
9.6750002 -1.581 1.354 1
10.631 -1.72 1.655 1
0 0 0 50
13.382 -2.1240001 2.5120001 1
14.955 -2.3510001 3.0510001 3
18.054001 -2.8139999 3.9790001 2
9.7089996 -1.503 1.359 2
10.672 -1.6339999 1.661 1
11.909 -1.8049999 2.0439999 1
13.364 -2.0050001 2.5079999 1
15.149 -2.2509999 3.089 5
17.764 -2.615 3.9130001 3
9.7390003 -1.423 1.363 1
10.7 -1.546 1.666 1
11.928 -1.705 2.0469999 1
13.43 -1.899 2.52 1
14.995 -2.099 3.0569999 2
0 0 0 50
9.7519999 -1.341 1.365 1
10.718 -1.456 1.668 1
11.95 -1.604 2.05 1
13.512 -1.794 2.5350001 1
15.502 -2.036 3.1589999 1
17.222 -2.2379999 3.7909999 12
9.7700005 -1.2589999 1.368 1
10.744 -1.367 1.673 1
11.954 -1.502 2.0510001 1
13.449 -1.67 2.523 1
15.414 -1.891 3.141 3
16.857 -2.0450001 3.71 27
9.7889996 -1.177 1.37 1
0 0 0 50
12.017 -1.4069999 2.0610001 1
13.3 -1.536 2.494 1
15.418 -1.7589999 3.141 1
16.509001 -1.8609999 3.6329999 36
9.8249998 -1.096 1.376 1
10.819 -1.189 1.684 1
12.017 -1.303 2.0610001 1
13.514 -1.4450001 2.5339999 2
15.15 -1.598 3.086 2
16.143999 -1.679 3.5510001 33
9.8599997 -1.0140001 1.381 1
10.828 -1.097 1.686 1
12.072 -1.2029999 2.0710001 1
13.069 -1.284 2.45 1
15.879 -1.536 3.234 10
15.807 -1.508 3.477 30
9.8859997 -0.93099999 1.3839999 1
10.852 -1.005 1.6900001 1
12.146 -1.1059999 2.0829999 1
0 0 0 50
15.574 -1.372 3.171 22
15.485 -1.342 3.405 35
9.8889999 -0.84600002 1.385 1
10.884 -0.91299999 1.6950001 1
12.286 -1.012 2.1070001 1
12.787 -1.034 2.3970001 4
15.3 -1.215 3.115 28
15.192 -1.1849999 3.3399999 30
9.9160004 -0.76200002 1.3890001 1
10.923 -0.82200003 1.701 1
12.295 -0.90700001 2.109 1
10.64 -0.76800001 1.994 16
10.604 -0.75 2.158 10
14.887 -1.0319999 3.2720001 30
10.071 -0.68599999 1.411 2
10.916 -0.727 1.7 1
10.642 -0.69199997 1.825 32
10.515 -0.66799998 1.971 41
0 0 0 50
10.565 -0.63999999 2.322 9
10.375 -0.616 1.454 5
10.807 -0.625 1.683 3
10.526 -0.59299999 1.8049999 42
10.432 -0.57200003 1.955 47
10.413 -0.55599999 2.119 44
10.511 -0.54500002 2.3099999 23
10.317 -0.523 1.446 5
10.692 -0.52499998 1.665 16
10.47 -0.49900001 1.795 50
10.392 -0.479 1.947 54
10.371 -0.46399999 2.1099999 48
10.463 -0.45199999 2.299 34
10.212 -0.428 1.431 5
0 0 0 50
10.46 -0.40599999 1.794 52
10.379 -0.38800001 1.9450001 83
10.373 -0.37200001 2.1099999 49
10.466 -0.361 2.299 36
10.028 -0.333 1.405 6
10.661 -0.338 1.66 29
10.468 -0.31600001 1.795 51
10.407 -0.29800001 1.95 53
10.393 -0.28299999 2.1140001 48
10.495 -0.27000001 2.3050001 34
10.432 -0.255 1.462 5
10.699 -0.245 1.666 21
10.505 -0.226 1.801 50
10.438 -0.208 1.955 50
10.429 -0.193 2.1210001 45
10.573 -0.18000001 2.322 11
10.431 -0.164 1.462 5
10.965 -0.156 1.707 2
10.564 -0.134 1.811 42
10.491 -0.118 1.965 45
10.529 -0.103 2.141 27
12.474 -0.103 2.7390001 88
10.095 -0.07 1.414 1
11.091 -0.059999999 1.726 1
10.751 -0.041999999 1.8430001 1
10.673 -0.027000001 1.999 5
12.472 -0.012 2.536 111
12.414 0.0060000001 2.7260001 109
10.101 0.017999999 1.415 1
11.139 0.037 1.734 1
12.544 0.059999999 2.1500001 17
12.507 0.079000004 2.342 127
12.445 0.096000001 2.53 121
12.393 0.114 2.721 117
10.129 0.108 1.418 1
11.149 0.13500001 1.735 1
12.54 0.171 2.148 14
12.511 0.18799999 2.342 124
12.45 0.205 2.5309999 117
12.403 0.223 2.7219999 115
10.139 0.197 1.419 1
11.216 0.234 1.745 1
12.526 0.28 2.145 8
12.523 0.29699999 2.3440001 68
12.449 0.31400001 2.53 61
12.381 0.33000001 2.717 61
10.134 0.285 1.418 1
11.223 0.333 1.745 1
12.5 0.38800001 2.1400001 38
12.479 0.40599999 2.335 16
12.517 0.42500001 2.543 9
12.561 0.44600001 2.756 7
10.164 0.375 1.421 1
11.225 0.43099999 1.745 1
12.548 0.5 2.148 1
0 0 0 50
12.973 0.55400002 2.635 9
12.93 0.57099998 2.836 11
10.168 0.46399999 1.421 1
11.263 0.53100002 1.75 1
12.582 0.611 2.1530001 1
13.132 0.65600002 2.4560001 8
13.064 0.671 2.6530001 8
13.008 0.68699998 2.8529999 8
10.222 0.55699998 1.428 1
11.291 0.63099998 1.753 1
12.593 0.722 2.154 1
13.19 0.77399999 2.4660001 9
13.133 0.79100001 2.6659999 8
13.073 0.80599999 2.8670001 9
10.247 0.648 1.431 1
11.342 0.73299998 1.76 1
12.669 0.83700001 2.1659999 1
13.256 0.89499998 2.477 8
13.19 0.90899998 2.677 8
11.463 0.80699998 2.513 1
8.3620005 0.602 1.1670001 0
8.3210001 0.611 1.291 33
11.476 0.85799998 1.961 61
11.416 0.87 2.1329999 59
11.349 0.88099998 2.303 56
11.28 0.89300001 2.4719999 56
8.3260002 0.67199999 1.161 29
8.302 0.68199998 1.2869999 43
11.304 0.94499999 1.931 59
11.245 0.95700002 2.0999999 57
11.18 0.96700001 2.2679999 54
11.122 0.97899997 2.437 54
8.2950001 0.74400002 1.155 50
8.2119999 0.74800003 1.272 96
8.1440001 0.75300002 1.39 30
11.086 1.041 2.069 55
11.018 1.051 2.234 53
10.957 1.063 2.4000001 53
8.2690001 0.815 1.151 76
8.1990004 0.81900001 1.2690001 96
8.1239996 0.82300001 1.386 99
10.924 1.122 2.0380001 55
10.859 1.132 2.201 55
10.81 1.143 2.368 55
8.2489996 0.88599998 1.147 90
0 0 0 50
8.118 0.89300001 1.3839999 96
8.7840004 0.98000002 1.638 0
10.705 1.21 2.1689999 56
10.65 1.22 2.332 55
8.2340002 0.958 1.1440001 95
8.1750002 0.96200001 1.2640001 99
8.1059999 0.96399999 1.381 97
8.7620001 1.0549999 1.633 9
10.554 1.285 2.138 55
10.496 1.295 2.2980001 54
8.2159996 1.028 1.14 97
8.1639996 1.033 1.261 98
8.1040001 1.036 1.38 96
8.7229996 1.128 1.625 12
10.412 1.3609999 2.109 56
10.362 1.37 2.2679999 55
8.2629995 1.107 1.146 43
8.1569996 1.104 1.2589999 93
8.099 1.107 1.378 94
8.6260004 1.191 1.6059999 29
10.278 1.434 2.0810001 56
10.226 1.443 2.2379999 55
8.2019997 1.1720001 1.136 2
8.2469997 1.1900001 1.272 25
8.1140003 1.181 1.38 52
8.0640001 1.1849999 1.501 88
10.144 1.506 2.053 57
10.097 1.515 2.2090001 56
8.7460003 1.3279999 1.21 0
8.6269999 1.321 1.329 2
8.2580004 1.276 1.404 25
8.0970001 1.262 1.507 41
8.0480003 1.266 1.628 51
9.9680004 1.584 2.1800001 54
10.038 1.614 1.387 11
0 0 0 50
9.9619999 1.628 1.692 61
8.2799997 1.364 1.54 8
8.1059999 1.348 1.6390001 26
9.8319998 1.649 2.1500001 55
9.8900003 1.678 1.365 13
9.8769999 1.688 1.5190001 62
9.8310003 1.694 1.669 59
9.7880001 1.7 1.819 58
9.7340002 1.705 1.9680001 56
9.6940002 1.7130001 2.119 54
9.7980003 1.75 1.351 17
9.7530003 1.7539999 1.499 63
9.7089996 1.7589999 1.647 59
9.6639996 1.765 1.796 59
9.6140003 1.77 1.943 56
9.5649996 1.776 2.0910001 54
6.4840002 1.216 0.89300001 7
6.4299998 1.214 0.98699999 7
9.5950003 1.825 1.627 61
6.3930001 1.225 1.187 0
9.5019999 1.834 1.92 57
9.4589996 1.841 2.0669999 54
6.3899999 1.256 0.87900001 22
6.3260002 1.251 0.97000003 22
6.408 1.276 1.086 6
6.3590002 1.275 1.1799999 12
6.3390002 1.28 1.28 14
6.3010001 1.283 1.377 5
6.336 1.302 0.87 16
6.349 1.313 0.97299999 21
6.3860002 1.329 1.081 13
6.2950001 1.318 1.168 6
6.3460002 1.339 1.2819999 17
6.2379999 1.326 1.363 13
6.3200002 1.3559999 0.86699998 20
6.3070002 1.3609999 0.96600002 20
6.3429999 1.376 1.073 55
6.29 1.374 1.1670001 19
6.2839999 1.382 1.2690001 30
6.2509999 1.385 1.3660001 18
6.3260002 1.414 0.86699998 16
0 0 0 50
6.369 1.439 1.077 18
6.2979999 1.432 1.168 18
6.2670002 1.434 1.265 14
6.2119999 1.431 1.357 12
6.3210001 1.47 0.86500001 21
6.4299998 1.502 0.98299998 1
6.3400002 1.49 1.072 1
6.3730001 1.506 1.181 17
6.322 1.503 1.276 13
6.2620001 1.499 1.368 4
6.382 1.541 0.87300003 1
8.934 2.168 1.365 75
8.8909998 2.1689999 1.502 70
8.8629999 2.174 1.643 67
8.8190002 2.177 1.78 63
8.7849998 2.1830001 1.92 63
8.8710003 2.223 1.212 81
8.8380003 2.2249999 1.349 76
8.7980003 2.2249999 1.4859999 69
8.7530003 2.227 1.622 68
8.7150002 2.23 1.7589999 63
8.6829996 2.2360001 1.898 64
8.7659998 2.276 1.197 81
8.7329998 2.2780001 1.3329999 78
0 0 0 50
8.665 2.2820001 1.6059999 71
8.6219997 2.2839999 1.7410001 65
8.5860004 2.2880001 1.878 63
8.6599998 2.3269999 1.181 81
8.6339998 2.329 1.317 77
8.5979996 2.3299999 1.451 73
8.5629997 2.3329999 1.586 70
8.5220003 2.3340001 1.721 64
8.4919996 2.3399999 1.858 62
8.5699997 2.3789999 1.168 83
8.5360003 2.3800001 1.301 81
8.5019999 2.381 1.4349999 73
8.4650002 2.382 1.568 69
8.4239998 2.3840001 1.701 65
8.3900003 2.388 1.836 63
8.4659996 2.428 1.153 80
8.4390001 2.4300001 1.286 83
8.3999996 2.428 1.418 73
8.3669996 2.431 1.551 69
8.3319998 2.4330001 1.683 64
8.2930002 2.4360001 1.816 67
8.3719997 2.477 1.1390001 81
8.335 2.4749999 1.27 80
8.3030005 2.4749999 1.401 71
0 0 0 50
8.2349997 2.4790001 1.664 62
8.2019997 2.4820001 1.7970001 61
8.2709999 2.5220001 1.125 53
8.2440004 2.5220001 1.256 81
8.2130003 2.523 1.386 73
8.1850004 2.5250001 1.518 69
8.1479998 2.526 1.648 64
8.1090002 2.5280001 1.778 62
8.184 2.569 1.113 82
8.158 2.5699999 1.242 84
8.125 2.569 1.3710001 72
8.092 2.569 1.501 69
8.059 2.572 1.631 64
8.0249996 2.5739999 1.76 61
0 0 0 50
8.0579996 2.612 1.227 85
8.0310001 2.6129999 1.3559999 74
7.9980001 2.6129999 1.484 70
7.9660001 2.6140001 1.613 66
7.9289999 2.6159999 1.7410001 64
8.0129995 2.661 1.089 83
7.9850001 2.661 1.216 84
7.9439998 2.6559999 1.342 75
7.9130001 2.6570001 1.469 70
7.8790002 2.658 1.597 65
7.8530002 2.6619999 1.726 61
7.9299998 2.7049999 1.0779999 87
0 0 0 50
7.868 2.7019999 1.33 73
7.8400002 2.7030001 1.457 71
7.802 2.7019999 1.5829999 66
7.776 2.7060001 1.711 61
7.8439999 2.747 1.066 80
7.8109999 2.744 1.191 81
7.7839999 2.744 1.317 73
7.7509999 2.743 1.442 72
7.73 2.747 1.5700001 67
7.6960001 2.7490001 1.696 62
7.7610002 2.7880001 1.0549999 81
7.7280002 2.7839999 1.179 82
0 0 0 50
7.6680002 2.7820001 1.428 77
7.645 2.786 1.5549999 72
7.6160002 2.789 1.681 71
7.6849999 2.8299999 1.046 91
7.6609998 2.829 1.169 90
7.6230001 2.8239999 1.2920001 83
7.5960002 2.825 1.416 76
7.5689998 2.8269999 1.541 72
7.5370002 2.8280001 1.666 70
7.6009998 2.868 1.035 91
7.5819998 2.868 1.159 90
0 0 0 50
7.5250001 2.8659999 1.405 76
7.4910002 2.865 1.528 71
7.461 2.8670001 1.652 68
7.5229998 2.9059999 1.025 91
7.4990001 2.904 1.147 87
7.4749999 2.904 1.27 82
7.4489999 2.904 1.393 77
7.4180002 2.904 1.515 73
7.3870001 2.905 1.638 71
7.4489999 2.944 1.016 87
0 0 0 50
7.3990002 2.9400001 1.2589999 79
7.3740001 2.941 1.381 75
7.3400002 2.9389999 1.502 70
7.3200002 2.944 1.626 69
7.3740001 2.98 1.007 85
7.3499999 2.9779999 1.128 84
7.3239999 2.9760001 1.248 82
7.2940001 2.974 1.369 74
7.27 2.977 1.4910001 69
7.2399998 2.977 1.612 67
0 0 0 50
7.277 3.013 1.118 86
7.25 3.0109999 1.238 80
7.2259998 3.0109999 1.359 74
7.1989999 3.0120001 1.48 68
7.1719999 3.013 1.601 66
7.2350001 3.053 0.99199998 87
7.2119999 3.0510001 1.1109999 86
7.1820002 3.0469999 1.229 80
7.1599998 3.0469999 1.349 74
0 0 0 50
7.1020002 3.0480001 1.589 68
7.164 3.086 0.98400003 88
7.1420002 3.0840001 1.103 86
7.1199999 3.0829999 1.222 80
7.0949998 3.0829999 1.341 76
7.0650001 3.082 1.459 69
0 0 0 50
7.098 3.122 0.977 90
7.0819998 3.1210001 1.096 87
7.0450001 3.1129999 1.212 82
7.027 3.115 1.331 75
7.0019999 3.1159999 1.45 70
6.9710002 3.1159999 1.568 68
7.0349998 3.155 0.97100002 88
7.0149999 3.1530001 1.089 86
6.9889998 3.1500001 1.206 84
6.9510002 3.1429999 1.321 77
6.9299998 3.145 1.439 70
6.9029999 3.1459999 1.557 68
6.973 3.188 0.96499997 92
0 0 0 50
6.9239998 3.1800001 1.198 83
6.8969998 3.178 1.314 78
6.875 3.1800001 1.432 72
6.849 3.181 1.55 69
6.9070001 3.217 0.95899999 89
6.8909998 3.2160001 1.076 88
6.8639998 3.211 1.191 84
6.836 3.2090001 1.307 76
0 0 0 50
6.7870002 3.211 1.541 67
6.8540001 3.25 0.95499998 86
6.8280001 3.2449999 1.0700001 84
6.802 3.2409999 1.184 81
6.7789998 3.24 1.301 75
6.7610002 3.243 1.418 71
6.7319999 3.2420001 1.534 72
6.7880001 3.276 0.949 86
6.7670002 3.273 1.064 85
0 0 0 50
6.7199998 3.2679999 1.294 76
6.697 3.2690001 1.41 71
6.6680002 3.2679999 1.525 68
6.7350001 3.3069999 0.94599998 87
6.7080002 3.3 1.059 84
6.6849999 3.2969999 1.173 81
6.6599998 3.2950001 1.2869999 74
6.638 3.2950001 1.403 70
6.612 3.296 1.518 71
6.6750002 3.332 0.94099998 87
0 0 0 50
6.632 3.325 1.168 83
6.605 3.322 1.2819999 75
6.5780001 3.3199999 1.396 70
6.5539999 3.322 1.511 65
6.6199999 3.359 0.93800002 86
6.6059999 3.358 1.052 85
6.5770001 3.352 1.164 81
6.5539999 3.3499999 1.277 75
6.5300002 3.3499999 1.391 70
6.5009999 3.349 1.505 66
6.572 3.388 0.935 87
0 0 0 50
6.526 3.3789999 1.16 80
6.5019999 3.3770001 1.273 85
6.4819999 3.3789999 1.387 78
6.4559999 3.3789999 1.501 77
6.5250001 3.415 0.93300003 91
6.5019999 3.4100001 1.045 88
6.473 3.4030001 1.156 88
6.4530001 3.4030001 1.2690001 81
6.4320002 3.404 1.383 77
6.4060001 3.405 1.4960001 76
6.474 3.4389999 0.93099999 91
6.4520001 3.434 1.0420001 88
0 0 0 50
6.4039998 3.427 1.266 83
6.3839998 3.4289999 1.3789999 77
6.362 3.431 1.493 76
6.4190001 3.4590001 0.92799997 88
6.4050002 3.457 1.04 86
6.3779998 3.4519999 1.151 87
6.3639998 3.454 1.2640001 81
6.336 3.4519999 1.375 75
6.3140001 3.454 1.488 78
6.3720002 3.4809999 0.92699999 90
0 0 0 50
6.3319998 3.474 1.148 85
6.3150001 3.4749999 1.261 79
6.29 3.474 1.372 75
6.2589998 3.4719999 1.482 75
6.329 3.5039999 0.926 86
6.3099999 3.5 1.036 83
6.29 3.497 1.147 85
6.2690001 3.4960001 1.258 81
6.2459998 3.4960001 1.37 74
6.2199998 3.4960001 1.4809999 75
6.2839999 3.5239999 0.92500001 84
0 0 0 50
6.2529998 3.5220001 1.146 82
6.2270002 3.5179999 1.256 80
6.2030001 3.5179999 1.367 73
6.1760001 3.517 1.478 71
6.2449999 3.546 0.92500001 84
6.2270002 3.5420001 1.035 82
6.2069998 3.539 1.1440001 81
6.1880002 3.539 1.256 78
6.1609998 3.5369999 1.365 72
0 0 0 50
6.2059999 3.566 0.92500001 84
6.1820002 3.5580001 1.033 80
6.1630001 3.556 1.143 81
6.145 3.5569999 1.2539999 75
6.1209998 3.556 1.364 69
6.098 3.5580001 1.475 72
6.1700001 3.585 0.926 81
6.152 3.5810001 1.035 82
6.1259999 3.575 1.143 80
6.1040001 3.573 1.253 77
6.079 3.572 1.362 71
0 0 0 50
6.131 3.6010001 0.926 81
6.118 3.5999999 1.036 82
6.0910001 3.5929999 1.1440001 81
6.0679998 3.5910001 1.252 78
6.0500002 3.5929999 1.363 71
6.0219998 3.5929999 1.472 72
6.0999999 3.6199999 0.92799997 84
6.0799999 3.615 1.036 80
6.0570002 3.6099999 1.1440001 80
6.0359998 3.609 1.253 76
6.006 3.605 1.3609999 70
5.9829998 3.6070001 1.471 72
6.0619998 3.6329999 0.92900002 84
0 0 0 50
6.0279999 3.628 1.146 80
6.0029998 3.625 1.2539999 77
5.9809999 3.625 1.363 70
5.9590001 3.628 1.474 71
6.0310001 3.648 0.93099999 80
6.0170002 3.6459999 1.039 79
5.9959998 3.6429999 1.147 80
5.9759998 3.642 1.256 76
5.9520001 3.641 1.364 71
5.9239998 3.641 1.473 71
6.0029998 3.6630001 0.93300003 80
0 0 0 50
5.9679999 3.658 1.149 79
5.9429998 3.654 1.257 74
5.9190001 3.6530001 1.365 70
5.8940001 3.655 1.474 72
5.9780002 3.677 0.93599999 80
5.961 3.674 1.043 78
5.9400001 3.671 1.151 78
5.9190001 3.6700001 1.2589999 73
5.8940001 3.6689999 1.367 69
0 0 0 50
5.9190001 3.668 0.93300003 42
5.9429998 3.691 1.0470001 78
5.9159999 3.684 1.154 75
5.8920002 3.681 1.261 73
5.8670001 3.6800001 1.368 69
5.8460002 3.684 1.478 71
5.652 3.5280001 0.89700001 27
5.6880002 3.5569999 1.0089999 22
5.8860002 3.691 1.155 73
5.8699999 3.6930001 1.2640001 74
0 0 0 50
5.8260002 3.698 1.4809999 72
5.5999999 3.5179999 0.89600003 31
5.6040001 3.5280001 1 27
5.6079998 3.54 1.107 24
5.658 3.5840001 1.225 22
5.809 3.694 1.37 64
5.7909999 3.7 1.48 79
5.559 3.513 0.89499998 41
5.5549998 3.5179999 0.99800003 33
5.5619998 3.5320001 1.105 30
5.5580001 3.5409999 1.21 29
0 0 0 50
5.5359998 3.559 1.423 25
5.5279999 3.5120001 0.89700001 49
5.52 3.5150001 0.99800003 40
5.5110002 3.5190001 1.101 36
5.5040002 3.527 1.206 31
5.5 3.539 1.312 28
5.4889998 3.549 1.418 28
5.5079999 3.516 0.89899999 51
5.4949999 3.5150001 1 45
0 0 0 50
5.4749999 3.5250001 1.206 39
5.4559999 3.527 1.308 33
5.447 3.539 1.415 32
5.4850001 3.516 0.90100002 57
5.4770002 3.5190001 1.003 52
5.461 3.5190001 1.104 46
5.4520001 3.526 1.207 43
5.4320002 3.527 1.309 38
5.414 3.533 1.413 37
0 0 0 50
5.4559999 3.5179999 1.005 54
5.4419999 3.5190001 1.1059999 51
5.4310002 3.5250001 1.209 47
5.4120002 3.5280001 1.311 42
5.3940001 3.533 1.414 42
5.46 3.5239999 0.90899998 61
5.4450002 3.5220001 1.0089999 55
5.4289999 3.5220001 1.109 53
5.4159999 3.526 1.212 51
5.3930001 3.527 1.313 45
5.3730001 3.5309999 1.415 44
5.4450002 3.523 0.912 62
0 0 0 50
5.414 3.5209999 1.112 55
5.401 3.526 1.214 53
5.3839998 3.53 1.316 50
5.362 3.533 1.418 47
5.4419999 3.527 0.917 61
5.427 3.526 1.016 57
5.4050002 3.5220001 1.1160001 56
5.3909998 3.526 1.2180001 53
5.3730001 3.529 1.3200001 50
5.3499999 3.5320001 1.421 50
5.4359999 3.5280001 0.921 64
5.4159999 3.523 1.02 57
5.402 3.5250001 1.12 57
5.3889999 3.529 1.222 56
5.3699999 3.5320001 1.324 51
0 0 0 50
5.4359999 3.53 0.926 62
5.415 3.5250001 1.024 57
5.401 3.526 1.125 58
5.3850002 3.529 1.227 56
5.3649998 3.5320001 1.3279999 52
5.3379998 3.533 1.429 51
5.427 3.5239999 0.92900002 63
5.4169998 3.527 1.03 57
5.395 3.523 1.1289999 57
5.381 3.5280001 1.2309999 55
5.3639998 3.5320001 1.3329999 50
5.3410001 3.5350001 1.4349999 50
5.4369998 3.529 0.935 61
5.4169998 3.5250001 1.034 56
5.3990002 3.5239999 1.1339999 56
0 0 0 50
5.368 3.533 1.339 51
5.3369999 3.5309999 1.438 50
5.4380002 3.526 0.93900001 60
5.4239998 3.5250001 1.039 56
5.4060001 3.5250001 1.1390001 54
5.3889999 3.527 1.2410001 53
5.3699999 3.5309999 1.3430001 50
5.3449998 3.533 1.4450001 49
5.447 3.526 0.94400001 61
5.4310002 3.5239999 1.044 55
5.4089999 3.5209999 1.1440001 53
5.3990002 3.5280001 1.247 52
5.3769999 3.53 1.349 49
5.3559999 3.5350001 1.451 48
5.4559999 3.523 0.949 60
5.4429998 3.523 1.05 54
5.4200001 3.52 1.15 51
0 0 0 50
5.3889999 3.53 1.355 43
5.3670001 3.5339999 1.4579999 45
5.4679999 3.5209999 0.954 57
5.4530001 3.52 1.0549999 51
5.4349999 3.52 1.156 47
5.4229999 3.5250001 1.2589999 45
5.4060001 3.5309999 1.362 41
5.3899999 3.539 1.467 40
5.4819999 3.517 0.95899999 53
5.4679999 3.517 1.0599999 48
5.4580002 3.5220001 1.163 43
5.4419999 3.526 1.266 41
5.4239998 3.5309999 1.369 36
5.4060001 3.5380001 1.474 35
5.5040002 3.517 0.96600002 48
5.494 3.52 1.068 40
5.4840002 3.5250001 1.171 39
5.4689999 3.529 1.274 35
0 0 0 50
5.4369998 3.5439999 1.484 29
5.5300002 3.517 0.972 39
5.5250001 3.5239999 1.076 33
5.5149999 3.529 1.179 29
5.5100002 3.54 1.286 27
5.4980001 3.5480001 1.392 26
5.4710002 3.55 1.495 26
5.5679998 3.5239999 0.98100001 31
5.5560002 3.5250001 1.0829999 27
5.5560002 3.5369999 1.1900001 27
5.5489998 3.546 1.296 24
5.572 3.5780001 1.4119999 21
5.5970001 3.6129999 1.53 22
5.6110001 3.53 0.98900002 26
5.6389999 3.5569999 1.101 23
5.717 3.619 1.225 24
5.829 3.704 1.362 68
5.8060002 3.7060001 1.472 72
5.7659998 3.701 1.577 72
5.7199998 3.576 1.01 21
5.8930001 3.694 1.151 76
5.8629999 3.687 1.257 78
5.8470001 3.6919999 1.367 75
0 0 0 50
5.7950001 3.6960001 1.585 73
5.9390001 3.688 1.049 75
5.9180002 3.684 1.156 74
5.881 3.674 1.261 76
5.868 3.6800001 1.372 74
5.8449998 3.6819999 1.4809999 73
5.816 3.684 1.591 72
5.96 3.674 1.053 76
5.941 3.671 1.16 73
5.914 3.6670001 1.268 77
0 0 0 50
5.869 3.6700001 1.487 73
5.836 3.6689999 1.595 73
5.9910002 3.6630001 1.058 78
5.9650002 3.6570001 1.165 79
5.9419999 3.655 1.273 81
5.9200001 3.6559999 1.382 80
5.8909998 3.655 1.4910001 79
5.8730001 3.6630001 1.603 84
6.0139999 3.6470001 1.061 80
0 0 0 50
5.9689999 3.641 1.277 85
5.947 3.642 1.387 80
5.9200001 3.642 1.497 80
5.8899999 3.6429999 1.6059999 81
6.039 3.6289999 1.064 81
6.026 3.631 1.174 78
6.0009999 3.6289999 1.283 82
5.9809999 3.6300001 1.393 82
5.9510002 3.6289999 1.502 79
5.9229999 3.6300001 1.612 78
6.0679998 3.6129999 1.068 81
6.0539999 3.6140001 1.178 77
6.0250001 3.608 1.285 84
6.006 3.6099999 1.396 81
5.9819999 3.6129999 1.507 80
5.954 3.6140001 1.618 80
6.1090002 3.6010001 1.073 81
6.0879998 3.598 1.182 78
6.059 3.592 1.29 84
6.0380001 3.5940001 1.401 84
6.0100002 3.5929999 1.511 82
5.9829998 3.595 1.623 80
6.1430001 3.5840001 1.077 79
0 0 0 50
6.0960002 3.576 1.295 83
6.0760002 3.5780001 1.406 83
6.0489998 3.5780001 1.517 81
6.0190001 3.579 1.628 79
6.1820002 3.5669999 1.08 79
6.1620002 3.5639999 1.1900001 79
6.132 3.5580001 1.299 84
6.105 3.556 1.409 81
6.0840001 3.559 1.522 79
6.0560002 3.5610001 1.633 83
6.2160001 3.546 1.0829999 80
6.1960001 3.543 1.193 78
6.1680002 3.5380001 1.303 83
6.1479998 3.54 1.415 84
6.1230001 3.5409999 1.527 82
6.0939999 3.5420001 1.638 83
6.2540002 3.526 1.086 79
6.2319999 3.5220001 1.197 80
6.2119999 3.5209999 1.308 85
6.191 3.5220001 1.42 83
6.164 3.5220001 1.5319999 85
6.1339998 3.5220001 1.6440001 85
6.2940001 3.5039999 1.089 79
6.2789998 3.5039999 1.201 83
6.2550001 3.5009999 1.312 88
6.2309999 3.5009999 1.424 85
6.2049999 3.5009999 1.5369999 87
6.1719999 3.5 1.648 85
6.3449998 3.4879999 1.094 80
6.3189998 3.4820001 1.204 82
6.2950001 3.4790001 1.316 88
6.2709999 3.4779999 1.428 86
6.2449999 3.4779999 1.541 88
6.2160001 3.4790001 1.654 85
6.388 3.4649999 1.096 82
6.362 3.4590001 1.207 82
6.3390002 3.4560001 1.319 88
6.3189998 3.4579999 1.433 89
6.289 3.4549999 1.545 86
6.2649999 3.4590001 1.66 88
6.427 3.4389999 1.098 73
6.408 3.437 1.21 76
6.3860002 3.4349999 1.323 79
6.3600001 3.4319999 1.436 77
6.3340001 3.4319999 1.55 78
0 0 0 50
6.4829998 3.4200001 1.102 72
6.4580002 3.414 1.214 78
6.4320002 3.4100001 1.327 79
6.415 3.4119999 1.442 78
6.3839998 3.4089999 1.5549999 80
6.3590002 3.411 1.67 78
6.527 3.3929999 1.104 75
6.5079999 3.3900001 1.217 80
6.4780002 3.3840001 1.329 80
6.4640002 3.3870001 1.446 80
6.4349999 3.3859999 1.5599999 81
6.4060001 3.3859999 1.675 78
6.5799999 3.369 1.107 73
6.5539999 3.3629999 1.22 79
6.5289998 3.359 1.3329999 79
6.507 3.358 1.448 77
6.48 3.3570001 1.563 81
6.4590001 3.3610001 1.6799999 85
6.6339998 3.3440001 1.11 76
6.612 3.3399999 1.224 80
6.5840001 3.3340001 1.337 82
6.559 3.332 1.452 79
6.5359998 3.3329999 1.568 82
6.5050001 3.332 1.684 79
6.6849999 3.316 1.112 76
6.6599998 3.3099999 1.226 78
6.6329999 3.3050001 1.34 80
6.6090002 3.303 1.455 77
6.5890002 3.3050001 1.573 83
6.5599999 3.3050001 1.689 83
6.7379999 3.2880001 1.114 75
6.71 3.28 1.228 79
6.6869998 3.277 1.3430001 80
6.6690001 3.2780001 1.46 80
6.6459999 3.2780001 1.5779999 82
6.6170001 3.2780001 1.694 83
6.8010001 3.263 1.117 75
6.776 3.257 1.232 79
6.75 3.2520001 1.348 81
0 0 0 50
6.698 3.2479999 1.581 81
6.6750002 3.25 1.7 87
6.8499999 3.23 1.118 78
6.8330002 3.2279999 1.234 79
6.8080001 3.224 1.351 82
6.7839999 3.221 1.4680001 81
6.7579999 3.22 1.586 84
6.73 3.2190001 1.704 81
6.9109998 3.2019999 1.12 78
6.8940001 3.1989999 1.238 80
6.8649998 3.1930001 1.354 81
6.8449998 3.191 1.472 79
6.8210001 3.191 1.591 82
6.7979999 3.1919999 1.711 88
6.9759998 3.1730001 1.123 76
6.9530001 3.168 1.24 82
6.927 3.1630001 1.357 84
6.901 3.1589999 1.475 81
6.8829999 3.161 1.596 82
6.848 3.1559999 1.7130001 81
7.0359998 3.142 1.125 81
7.0159998 3.1370001 1.243 82
6.9829998 3.1289999 1.36 81
6.967 3.1300001 1.48 78
6.9489999 3.131 1.602 80
6.9120002 3.1259999 1.719 81
7.0960002 3.109 1.126 79
7.0700002 3.102 1.244 83
7.0409999 3.095 1.362 81
7.0310001 3.098 1.484 80
7.007 3.096 1.605 82
6.9829998 3.096 1.726 81
7.158 3.076 1.128 78
7.1420002 3.072 1.248 81
7.1170001 3.0669999 1.367 80
7.0999999 3.066 1.489 80
7.0710001 3.062 1.609 82
7.0440001 3.0599999 1.7309999 82
7.223 3.0409999 1.13 76
7.211 3.039 1.251 82
7.1810002 3.0320001 1.37 81
7.1620002 3.0309999 1.493 79
7.1350002 3.027 1.614 82
7.112 3.027 1.737 80
7.2919998 3.0079999 1.132 76
7.2719998 3.003 1.253 81
7.25 2.9990001 1.374 80
0 0 0 50
7.2049999 2.993 1.619 80
7.1830001 2.993 1.743 77
7.3709998 2.977 1.135 75
7.3499999 2.971 1.257 80
7.322 2.964 1.378 79
7.3039999 2.9619999 1.502 83
7.2779999 2.9590001 1.625 84
7.2610002 2.96 1.751 79
7.4380002 2.9389999 1.137 76
7.4229999 2.9360001 1.26 82
7.3979998 2.9289999 1.383 81
7.3790002 2.927 1.507 82
7.3499999 2.9230001 1.63 84
7.3270001 2.921 1.755 86
7.5170002 2.9059999 1.14 67
7.4949999 2.8989999 1.263 73
7.4689999 2.892 1.386 74
7.4450002 2.888 1.51 73
7.428 2.8870001 1.637 75
7.408 2.8870001 1.7640001 74
7.5910001 2.868 1.142 70
7.5669999 2.8599999 1.266 73
7.546 2.8559999 1.391 74
7.5229998 2.8510001 1.516 72
7.507 2.8510001 1.643 73
7.4840002 2.849 1.77 78
7.6620002 2.829 1.1440001 67
7.6440001 2.823 1.2690001 74
7.6149998 2.8150001 1.3940001 75
7.5939999 2.8110001 1.52 75
7.5710001 2.8080001 1.647 75
7.5580001 2.8099999 1.777 75
7.7360001 2.789 1.146 69
7.7220001 2.7850001 1.273 74
7.698 2.779 1.399 75
7.6729999 2.773 1.526 77
7.652 2.77 1.654 76
7.631 2.7679999 1.7819999 77
7.8169999 2.75 1.149 68
7.7989998 2.744 1.276 74
0 0 0 50
7.7540002 2.734 1.531 76
7.7399998 2.7320001 1.6619999 75
7.7150002 2.73 1.79 76
7.902 2.7130001 1.153 70
7.8759999 2.704 1.28 75
7.8600001 2.7 1.409 75
7.842 2.6960001 1.539 75
7.8179998 2.6919999 1.668 77
7.7969999 2.6889999 1.798 75
7.9809999 2.671 1.156 71
7.9650002 2.665 1.285 73
7.941 2.658 1.414 75
7.9190001 2.652 1.544 75
7.8979998 2.6489999 1.674 74
7.869 2.6440001 1.804 75
8.0570002 2.6270001 1.158 71
8.0410004 2.6210001 1.288 73
8.0109997 2.612 1.416 75
8.0019999 2.6099999 1.549 75
7.9819999 2.6070001 1.681 76
7.9569998 2.6029999 1.813 80
8.1359997 2.5829999 1.16 71
8.1190004 2.5769999 1.291 73
8.1059999 2.572 1.424 74
8.085 2.5669999 1.5549999 74
8.0640001 2.562 1.688 76
8.0459995 2.559 1.822 74
8.2270002 2.5409999 1.164 68
8.2080002 2.533 1.296 72
0 0 0 50
8.1759996 2.5220001 1.563 73
8.151 2.517 1.696 74
8.1339998 2.5139999 1.831 75
8.3260002 2.4990001 1.17 70
8.3079996 2.4909999 1.303 72
8.2849998 2.483 1.4349999 75
8.2670002 2.4779999 1.5700001 74
8.2530003 2.4749999 1.706 73
8.2259998 2.4690001 1.841 74
8.4119997 2.4530001 1.173 69
8.3940001 2.4449999 1.307 72
8.3850002 2.441 1.444 73
8.3629999 2.434 1.579 75
8.335 2.4260001 1.7130001 75
8.3219995 2.425 1.852 76
8.507 2.4070001 1.178 68
8.4940004 2.4000001 1.314 73
8.4709997 2.392 1.449 75
8.4569998 2.3870001 1.587 73
8.4329996 2.3800001 1.723 75
8.408 2.3740001 1.86 74
8.5979996 2.359 1.182 70
8.5799999 2.3510001 1.318 70
8.5710001 2.3469999 1.457 73
8.5500002 2.339 1.595 75
8.5279999 2.3329999 1.733 74
8.5050001 2.3269999 1.872 75
8.6949997 2.312 1.187 67
8.6750002 2.303 1.325 66
8.6599998 2.296 1.464 74
8.6440001 2.29 1.603 76
8.6269999 2.2839999 1.743 75
8.6099997 2.279 1.8839999 78
8.7939997 2.263 1.193 68
8.7810001 2.256 1.332 67
8.7580004 2.2460001 1.471 75
8.7390003 2.2390001 1.612 75
8.7259998 2.234 1.7539999 75
8.7049999 2.227 1.895 77
8.8959999 2.2130001 1.199 70
8.8730001 2.2030001 1.3380001 67
8.8570004 2.1949999 1.479 73
8.8430004 2.188 1.622 74
8.8199997 2.181 1.763 75
8.8070002 2.1760001 1.908 80
6.3600001 1.528 0.85100001 8
6.3499999 1.522 0.95200002 0
6.3860002 1.527 1.0599999 0
6.3569999 1.518 1.159 3
6.323 1.508 1.258 7
6.2519999 1.49 1.348 5
6.3130002 1.464 0.83999997 19
6.3109999 1.459 0.94099998 13
0 0 0 50
6.2820001 1.447 1.14 8
6.2940001 1.447 1.2460001 10
6.2719998 1.4400001 1.345 12
6.3400002 1.4170001 0.838 13
6.3189998 1.408 0.93599999 8
6.3140001 1.403 1.0369999 16
6.3049998 1.397 1.138 16
6.3060002 1.395 1.242 14
6.2259998 1.375 1.33 16
6.296 1.354 0.82800001 9
6.3260002 1.3559999 0.93199998 17
6.3049998 1.347 1.031 17
6.2839999 1.339 1.1289999 13
6.302 1.34 1.2359999 28
6.2249999 1.321 1.324 12
6.336 1.309 0.82800001 14
6.4219999 1.322 0.94199997 13
6.3889999 1.311 1.039 15
6.401 1.309 1.145 7
6.3049998 1.286 1.2309999 9
6.3280001 1.2869999 1.34 10
6.4450002 1.277 0.838 10
6.3670001 1.256 0.92900002 14
6.3909998 1.256 1.035 15
9.5059996 1.863 1.693 63
6.362 1.243 1.237 1
9.4689999 1.846 1.997 62
6.4749999 1.229 0.838 14
6.4510002 1.219 0.93699998 12
9.6219997 1.811 1.552 58
9.6070004 1.802 1.704 63
9.5889997 1.7920001 1.857 62
9.5740004 1.783 2.0120001 61
6.5289998 1.1849999 0.84100002 10
9.7510004 1.761 1.41 58
9.7440004 1.752 1.5650001 56
9.7259998 1.7410001 1.719 61
9.71 1.7309999 1.873 61
9.6929998 1.722 2.029 60
9.8479996 1.706 1.263 9
0 0 0 50
9.8620005 1.691 1.577 56
9.8559999 1.681 1.735 60
9.8339996 1.67 1.891 61
0 0 0 0
9.8529997 1.625 1.258 2
9.9980001 1.6390001 1.434 26
9.9849997 1.628 1.591 57
9.9860001 1.619 1.752 59
8.1210003 1.3099999 1.556 27
8.0679998 1.296 1.678 11
9.8319998 1.54 1.251 2
8.7279997 1.358 1.247 1
8.3859997 1.2970001 1.332 0
8.1780005 1.257 1.4299999 30
8.0489998 1.23 1.538 84
10.088 1.534 2.092 64
9.8559999 1.462 1.249 2
8.5600004 1.261 1.219 1
8.2370005 1.205 1.304 30
8.092 1.176 1.411 68
8.092 1.168 1.541 10
10.219 1.466 2.1129999 61
10.12 1.418 1.278 3
8.2889996 1.152 1.177 30
8.1420002 1.123 1.285 78
8.0830002 1.107 1.405 96
10.347 1.406 1.966 51
10.347 1.396 2.1340001 64
10.093 1.331 1.271 5
8.2080002 1.073 1.1619999 89
8.1450005 1.0549999 1.2819999 91
8.0900002 1.039 1.403 98
8.7320004 1.113 1.655 1
10.473 1.324 2.1559999 59
10.154 1.255 1.275 5
8.21 1.005 1.159 93
8.1529999 0.98799998 1.281 91
8.0930004 0.972 1.4 97
8.7220001 1.038 1.65 0
10.617 1.252 2.181 60
9.5299997 1.099 1.194 1
8.2229996 0.93800002 1.159 91
8.1630001 0.92199999 1.279 89
8.1070004 0.90499997 1.4 99
10.772 1.191 2.0339999 56
10.757 1.177 2.2060001 59
9.4460001 1.012 1.1799999 1
8.2489996 0.87300003 1.16 86
0 0 0 50
8.1160002 0.83999997 1.399 95
10.929 1.117 2.0599999 55
10.916 1.104 2.2349999 58
9.4090004 0.93199998 1.174 1
8.2650003 0.80800003 1.16 72
8.191 0.79000002 1.279 86
8.1350002 0.77399999 1.4 108
11.071 1.04 2.0840001 54
11.062 1.025 2.2620001 56
9.3879995 0.85299999 1.169 1
8.2989998 0.74299997 1.163 40
8.2150002 0.72399998 1.281 81
11.25 0.97600001 1.934 58
11.232 0.96100003 2.112 55
11.225 0.94599998 2.293 58
9.3669996 0.77499998 1.165 1
8.3360004 0.67799997 1.1670001 25
8.3059998 0.66399997 1.294 60
11.401 0.89600003 1.9579999 58
11.387 0.88 2.1389999 57
11.377 0.86400002 2.322 59
9.3570004 0.69800001 1.163 1
8.3579998 0.61199999 1.169 1
8.3339996 0.59799999 1.298 2
12.244 0.86199999 2.102 1
13.268 0.91500002 2.4909999 8
13.174 0.89099997 2.687 9
9.3149996 0.62 1.1569999 1
10.192 0.66299999 1.425 1
11.328 0.72000003 1.763 1
12.603 0.78399998 2.1619999 1
13.197 0.80199999 2.4760001 8
13.114 0.778 2.674 8
9.3079996 0.54500002 1.156 1
10.168 0.57999998 1.4220001 1
11.285 0.62599999 1.756 1
12.582 0.67900002 2.1589999 1
13.145 0.69099998 2.4660001 8
13.052 0.66600001 2.661 8
9.2729998 0.46799999 1.152 1
0 0 0 50
11.241 0.53299999 1.749 1
12.536 0.57499999 2.151 1
13.081 0.57999998 2.4549999 8
12.97 0.55500001 2.6440001 11
9.2679996 0.39399999 1.152 1
10.126 0.414 1.4170001 1
11.212 0.44 1.7460001 1
12.493 0.47099999 2.1440001 1
12.701 0.45899999 2.3840001 7
12.61 0.43599999 2.572 7
9.2480001 0.31900001 1.15 1
10.084 0.33199999 1.4119999 1
11.392 0.35600001 1.775 1
12.493 0.37 2.1459999 68
12.431 0.34799999 2.335 66
12.422 0.32699999 2.5350001 65
9.25 0.245 1.151 1
10.103 0.25099999 1.416 1
11.24 0.25999999 1.753 1
12.549 0.27000001 2.1570001 8
12.528 0.248 2.355 117
12.461 0.226 2.5450001 112
9.2449999 0.17200001 1.153 2
10.089 0.17 1.416 1
0 0 0 50
12.533 0.168 2.1570001 16
12.501 0.146 2.3529999 121
12.45 0.123 2.546 117
9.2489996 0.098999999 1.155 1
10.076 0.090000004 1.416 1
11.176 0.079999998 1.747 1
12.543 0.068000004 2.1619999 18
12.504 0.045000002 2.3570001 120
12.465 0.022 2.552 112
9.2410002 0.026000001 1.156 1
10.079 0.0099999998 1.419 1
11.166 -0.0080000004 1.749 1
12.516 -0.032000002 2.161 8
10.575 -0.046999998 1.9960001 15
10.589 -0.066 2.171 14
9.2370005 -0.046 1.158 1
10.08 -0.068999998 1.4220001 1
11.179 -0.097000003 1.7539999 1
10.592 -0.111 1.831 36
10.479 -0.13 1.9809999 46
10.468 -0.149 2.1500001 46
9.2309999 -0.118 1.16 1
10.393 -0.152 1.47 3
10.738 -0.177 1.689 5
10.512 -0.19400001 1.821 47
10.428 -0.213 1.976 49
10.415 -0.233 2.1429999 49
9.2279997 -0.19 1.163 1
0 0 0 50
10.66 -0.26100001 1.6799999 30
10.476 -0.27700001 1.819 48
10.396 -0.296 1.974 52
10.394 -0.317 2.1440001 50
7.6300001 -0.21699999 0.96399999 0
10.453 -0.31799999 1.4859999 5
10.622 -0.34400001 1.679 36
10.449 -0.36000001 1.819 49
10.38 -0.37799999 1.976 84
10.376 -0.39899999 2.145 51
7.631 -0.27700001 0.96799999 9
10.466 -0.40000001 1.492 5
10.6 -0.426 1.6799999 38
10.446 -0.442 1.824 49
10.375 -0.46000001 1.98 59
10.381 -0.48300001 2.151 50
7.8429999 -0.345 0.99800003 16
10.47 -0.48199999 1.498 4
10.624 -0.51099998 1.689 26
10.463 -0.52499998 1.832 47
10.407 -0.54500002 1.9910001 46
10.435 -0.56900001 2.168 45
7.7389998 -0.40099999 0.98900002 8
10.481 -0.565 1.505 4
10.687 -0.59799999 1.705 16
10.53 -0.61199999 1.849 40
10.467 -0.63099998 2.0090001 43
10.516 -0.65799999 2.1919999 38
7.638 -0.45500001 0.98000002 7
10.453 -0.64399999 1.506 3
11.032 -0.70300001 1.766 1
10.615 -0.69999999 1.87 32
10.567 -0.72000003 2.0350001 38
10.606 -0.74699998 2.217 1
7.6220002 -0.51300001 0.98199999 7
10.15 -0.704 1.4680001 1
11.239 -0.80400002 1.806 1
12.67 -0.935 2.24 2
14.006 -1.0650001 2.7060001 5
0 0 0 50
7.6129999 -0.56999999 0.98500001 11
10.15 -0.78200001 1.474 1
11.269 -0.89300001 1.817 1
12.736 -1.038 2.26 13
14.065 -1.179 2.7260001 2
15.514 -1.3380001 3.2639999 41
7.6500001 -0.63099998 0.99400002 9
10.184 -0.86299998 1.485 1
11.276 -0.98000002 1.825 1
12.653 -1.13 2.2539999 1
12.762 -1.17 2.483 1
15.818 -1.489 3.3399999 33
7.6409998 -0.68900001 0.99800003 7
10.185 -0.94199997 1.492 1
11.353 -1.076 1.846 1
12.749 -1.237 2.28 1
14.392 -1.432 2.8099999 2
16.105 -1.642 3.4130001 33
7.6440001 -0.74800003 1.003 6
10.212 -1.022 1.503 1
11.399 -1.169 1.8609999 1
12.778 -1.34 2.2950001 1
14.464 -1.553 2.835 2
16.381001 -1.8 3.484 8
7.6469998 -0.80699998 1.008 6
10.251 -1.105 1.516 1
11.397 -1.256 1.869 1
12.813 -1.443 2.3110001 1
14.158 -1.63 2.786 3
16.646999 -1.961 3.5550001 7
7.665 -0.86699998 1.016 5
10.279 -1.187 1.527 1
11.41 -1.346 1.88 1
12.88 -1.551 2.332 1
14.42 -1.773 2.8499999 2
16.922001 -2.125 3.628 4
7.6329999 -0.921 1.017 1
10.289 -1.267 1.536 1
11.47 -1.4400001 1.899 1
12.923 -1.655 2.3510001 1
14.541 -1.9 2.8859999 2
17.222 -2.296 3.707 5
9.3979998 -1.204 1.2589999 1
10.328 -1.349 1.55 1
11.5 -1.531 1.913 1
12.93 -1.7539999 2.3629999 1
14.741 -2.0380001 2.938 3
17.028 -2.401 3.681 2
9.4490004 -1.2819999 1.273 1
10.369 -1.432 1.564 1
11.537 -1.623 1.928 1
12.982 -1.86 2.3829999 1
14.81 -2.161 2.9649999 1
17.374001 -2.5840001 3.7709999 2
9.4499998 -1.353 1.28 1
10.413 -1.516 1.579 1
11.588 -1.717 1.946 1
13.056 -1.969 2.408 1
14.897 -2.2880001 2.9960001 1
16.986 -2.6570001 3.7030001 2
9.4630003 -1.426 1.29 1
0 0 0 50
11.552 -1.799 1.95 1
13.116 -2.0780001 2.4300001 1
14.912 -2.4030001 3.0120001 1
17.200001 -2.8210001 3.766 4
9.5019999 -1.501 1.302 1
10.443 -1.676 1.6 1
11.683 -1.9069999 1.982 1
13.133 -2.1789999 2.4449999 1
15.081 -2.5439999 3.0599999 6
17.688999 -3.036 3.8900001 4
9.5389996 -1.577 1.3150001 1
10.488 -1.761 1.6160001 1
11.706 -1.997 1.9960001 1
13.241 -2.2950001 2.477 1
15.2 -2.678 3.099 4
17.768999 -3.1830001 3.924 7
9.5570002 -1.65 1.325 1
10.526 -1.844 1.63 1
11.705 -2.0829999 2.006 1
13.215 -2.388 2.484 1
15.229 -2.7969999 3.119 1
17.923 -3.345 3.9760001 6
9.5790005 -1.723 1.336 1
10.562 -1.927 1.645 1
11.756 -2.177 2.0239999 1
13.329 -2.506 2.517 1
15.325 -2.9260001 3.1530001 1
17.806999 -3.4560001 3.9679999 6
9.6070004 -1.7970001 1.347 1
10.601 -2.0109999 1.66 1
11.832 -2.277 2.0469999 1
13.386 -2.615 2.54 1
15.342 -3.0420001 3.171 1
17.938999 -3.6140001 4.0159998 0
9.6440001 -1.873 1.36 1
9.4239998 -1.855 1.483 17
9.3739996 -1.872 1.631 31
13.468 -2.7290001 2.5680001 1
15.492 -3.1860001 3.217 1
17.702 -3.6960001 3.98 1
9.5830002 -1.9299999 1.36 2
9.2989998 -1.898 1.471 47
9.2679996 -1.9170001 1.62 49
13.549 -2.8429999 2.596 1
15.632 -3.3269999 3.26 1
19.058001 -4.1170001 4.3039999 16
9.3959999 -1.9579999 1.341 31
9.2559996 -1.954 1.472 67
9.2399998 -1.977 1.623 58
9.3450003 -2.0280001 1.799 0
15.77 -3.47 3.3039999 1
18.969 -4.2360001 4.302 16
9.3529997 -2.0150001 1.342 46
9.2299995 -2.0139999 1.476 76
9.2220001 -2.039 1.628 59
13.704 -3.0699999 2.6500001 1
16.004 -3.6359999 3.369 1
18.757999 -4.323 4.2729998 14
9.3369999 -2.0769999 1.347 46
9.217 -2.075 1.4809999 72
9.2150002 -2.102 1.635 52
13.757 -3.1789999 2.6730001 1
15.974 -3.743 3.3770001 1
18.586 -4.4159999 4.2519999 15
9.3260002 -2.138 1.352 43
9.2209997 -2.1400001 1.489 51
9.276 -2.1800001 1.653 38
13.832 -3.2939999 2.7 1
16.034 -3.869 3.404 1
18.406 -4.5019999 4.2280002 18
9.4189997 -2.224 1.373 11
9.2860003 -2.2179999 1.507 36
9.3059998 -2.2509999 1.666 3
13.815 -3.3840001 2.7079999 1
14.846 -3.684 3.165 8
14.706 -3.698 3.392 11
9.8319998 -2.3870001 1.441 1
9.3800001 -2.3039999 1.53 0
12.233 -3.0420001 2.201 1
14.143 -3.559 2.7839999 2
14.705 -3.7490001 3.148 11
14.567 -3.7620001 3.3729999 10
9.842 -2.4549999 1.449 1
0 0 0 50
12.288 -3.1359999 2.22 1
14.413 -3.724 2.849 2
14.553 -3.8080001 3.128 9
14.418 -3.822 3.352 9
9.8889999 -2.5320001 1.4630001 1
10.94 -2.832 1.801 1
12.342 -3.2320001 2.2390001 1
14.449 -3.829 2.868 3
14.426 -3.8710001 3.1129999 10
14.286 -3.882 3.3329999 9
7.3150001 -1.92 1.087 0
11.017 -2.9230001 1.821 1
12.385 -3.323 2.256 1
14.44 -3.921 2.878 5
14.285 -3.9260001 3.0940001 9
14.156 -3.9400001 3.3150001 10
7.2210002 -1.941 1.0779999 18
11.037 -2.9990001 1.832 1
12.389 -3.404 2.266 1
14.387 -3.9979999 2.878 9
14.146 -3.9790001 3.075 30
14.11 -4.0180001 3.316 12
7.1440001 -1.966 1.071 31
11.074 -3.079 1.846 1
12.461 -3.503 2.2880001 1
14.296 -4.0650001 2.8699999 13
14.203 -4.086 3.098 12
14.143 -4.119 3.3340001 13
7.099 -1.997 1.069 45
7.2360001 -2.0569999 1.21 1
12.5 -3.592 2.303 1
14.292 -4.1529999 2.8789999 13
14.235 -4.1830001 3.115 12
14.186 -4.2199998 3.355 85
7.0770001 -2.0350001 1.0700001 47
7.191 -2.0880001 1.207 2
12.507 -3.671 2.312 1
14.313 -4.2470002 2.892 76
14.271 -4.283 3.1329999 84
14.223 -4.3179998 3.3740001 86
7.0630002 -2.0739999 1.071 48
7.1799998 -2.1289999 1.209 2
12.572 -3.766 2.332 1
14.338 -4.3410001 2.9059999 29
14.315 -4.3829999 3.152 11
14.27 -4.4200001 3.3940001 11
7.0510001 -2.112 1.073 46
0 0 0 50
12.555 -3.836 2.335 1
14.321 -4.421 2.911 7
14.622 -4.5630002 3.2279999 11
14.574 -4.5999999 3.4760001 10
7.0419998 -2.1500001 1.075 45
7.1669998 -2.2090001 1.214 0
12.562 -3.9100001 2.3429999 1
14.425 -4.5359998 2.9400001 3
14.659 -4.6599998 3.244 10
14.623 -4.6999998 3.4960001 10
7.039 -2.1889999 1.0779999 38
11.169 -3.5050001 1.898 1
12.611 -3.9960001 2.358 1
14.423 -4.6170001 2.947 3
14.719 -4.7620001 3.2650001 11
14.651 -4.7919998 3.51 10
7.0570002 -2.233 1.0829999 31
11.17 -3.5680001 1.902 1
12.648 -4.0780001 2.3699999 1
14.424 -4.6960001 2.9519999 4
14.746 -4.8509998 3.277 10
14.688 -4.8839998 3.526 9
7.0799999 -2.279 1.089 29
11.176 -3.6289999 1.9069999 1
12.636 -4.1409998 2.372 1
14.382 -4.7589998 2.9489999 4
14.791 -4.9439998 3.293 9
14.691 -4.9640002 3.533 2
7.1209998 -2.329 1.097 24
11.205 -3.697 1.915 1
12.613 -4.1989999 2.372 1
14.384 -4.835 2.954 5
14.835 -5.0359998 3.3080001 3
14.736 -5.0549998 3.549 3
7.132 -2.369 1.1 2
11.193 -3.75 1.916 1
12.635 -4.27 2.3789999 1
14.377 -4.9039998 2.957 4
14.85 -5.1149998 3.3150001 3
14.798 -5.1490002 3.5680001 2
10.076 -3.3970001 1.557 1
11.214 -3.812 1.9220001 1
12.681 -4.348 2.3900001 1
14.4 -4.9819999 2.964 5
14.861 -5.191 3.322 2
14.826 -5.2309999 3.5780001 3
10.074 -3.4449999 1.558 1
11.21 -3.8640001 1.923 1
12.604 -4.382 2.378 1
14.522 -5.0929999 2.9920001 15
14.904 -5.276 3.3329999 2
13.189 -4.7150002 3.1849999 3
10.064 -3.4879999 1.557 1
11.171 -3.902 1.9170001 1
12.651 -4.4549999 2.388 1
14.309 -5.0830002 2.9489999 2
14.979 -5.3699999 3.3510001 0
14.845 -5.3730001 3.586 3
10.057 -3.5309999 1.556 1
11.135 -3.9389999 1.911 1
12.614 -4.4980001 2.381 1
14.511 -5.2179999 2.9909999 1
14.972 -5.4320002 3.3499999 3
13.224 -4.842 3.1949999 4
10.026 -3.562 1.551 1
11.119 -3.9790001 1.908 1
12.658 -4.566 2.3889999 1
14.394 -5.2350001 2.967 1
15.037 -5.5159998 3.3640001 10
14.978 -5.546 3.619 10
10.002 -3.5940001 1.546 1
11.113 -4.0219998 1.906 1
12.52 -4.566 2.3610001 1
14.41 -5.2969999 2.9679999 2
15.071 -5.5869999 3.3699999 10
15.009 -5.6139998 3.625 9
0 0 0 50
11.125 -4.0689998 1.906 1
12.545 -4.6220002 2.3640001 1
14.371 -5.336 2.9579999 1
15.115 -5.6589999 3.3770001 9
15.041 -5.6810002 3.6300001 10
9.9840002 -3.6619999 1.539 1
11.064 -4.086 1.893 1
12.456 -4.6329999 2.345 1
14.26 -5.3449998 2.9319999 1
15.122 -5.7140002 3.3759999 10
15.071 -5.743 3.6329999 10
9.9650002 -3.6900001 1.534 1
11.075 -4.1279998 1.892 1
12.433 -4.6669998 2.3369999 1
14.249 -5.388 2.9260001 1
15.169 -5.7800002 3.381 10
15.103 -5.803 3.6359999 10
9.9309998 -3.71 1.525 1
10.984 -4.1290002 1.872 1
12.46 -4.7150002 2.3369999 1
14.205 -5.414 2.911 1
15.189 -5.8330002 3.3800001 10
15.137 -5.8610001 3.6389999 10
9.8979998 -3.727 1.516 1
10.961 -4.1529999 1.864 1
12.365 -4.7150002 2.3139999 1
14.123 -5.4219999 2.888 1
15.214 -5.8860002 3.3789999 9
15.138 -5.902 3.632 9
9.8590002 -3.74 1.506 1
10.935 -4.1729999 1.854 1
12.371 -4.75 2.309 1
14.137 -5.4650002 2.8840001 1
15.237 -5.9330001 3.3759999 9
12.243 -4.803 2.931 5
9.8109999 -3.7479999 1.493 1
10.898 -4.1859999 1.8430001 1
12.273 -4.743 2.2850001 1
14.025 -5.4549999 2.8529999 1
12.313 -4.822 2.7219999 6
12.229 -4.8249998 2.9200001 71
9.7489996 -3.747 1.478 1
10.885 -4.2059999 1.834 1
12.245 -4.7589998 2.2720001 1
12.387 -4.8439999 2.5120001 9
12.295 -4.8400002 2.7090001 10
12.208 -4.8410001 2.9070001 69
9.7489996 -3.7679999 1.472 1
10.763 -4.1799998 1.806 1
12.161 -4.75 2.2479999 1
12.351 -4.8530002 2.497 12
12.278 -4.8559999 2.697 11
12.185 -4.8530002 2.8929999 70
9.7030001 -3.7679999 1.4579999 1
10.707 -4.178 1.789 1
12.075 -4.737 2.223 1
12.332 -4.8649998 2.483 11
12.254 -4.8649998 2.6819999 11
12.168 -4.8629999 2.8789999 65
9.6350002 -3.757 1.441 1
10.663 -4.177 1.774 1
11.989 -4.7199998 2.198 1
0 0 0 50
12.231 -4.8709998 2.6670001 11
12.162 -4.875 2.8670001 55
9.585 -3.75 1.426 1
10.599 -4.165 1.7539999 1
11.961 -4.723 2.1830001 2
12.302 -4.8839998 2.4579999 12
12.225 -4.881 2.655 11
12.149 -4.881 2.8529999 47
9.5290003 -3.7390001 1.41 1
10.537 -4.152 1.735 1
12.126 -4.8000002 2.2019999 2
12.304 -4.895 2.447 12
12.211 -4.8850002 2.6400001 11
12.154 -4.8909998 2.8429999 37
9.4919996 -3.733 1.396 1
10.457 -4.1279998 1.712 1
12.124 -4.8070002 2.191 3
12.298 -4.9000001 2.4330001 12
12.191 -4.8829999 2.6240001 11
12.156 -4.8959999 2.8310001 32
9.4560003 -3.724 1.381 1
10.404 -4.112 1.693 1
12.043 -4.7800002 2.165 2
12.315 -4.9109998 2.425 12
12.172 -4.8769999 2.608 21
12.152 -4.8969998 2.8169999 26
9.3699999 -3.694 1.359 1
10.323 -4.0830002 1.67 1
11.991 -4.7610002 2.1429999 2
12.341 -4.9219999 2.4159999 11
12.173 -4.8779998 2.595 27
12.156 -4.8959999 2.8039999 18
9.3310003 -3.6789999 1.344 1
10.275 -4.0640001 1.652 1
11.941 -4.7399998 2.1210001 2
0 0 0 50
12.175 -4.875 2.5810001 29
12.163 -4.8940001 2.7920001 11
9.2720003 -3.654 1.325 1
10.213 -4.0370002 1.63 1
11.905 -4.7210002 2.1010001 2
12.39 -4.9320002 2.398 12
12.186 -4.8709998 2.5680001 30
12.167 -4.8870001 2.7780001 11
9.217 -3.628 1.307 1
10.145 -4.0040002 1.608 1
11.757 -4.6550002 2.062 2
12.433 -4.9400001 2.391 12
12.228 -4.8779998 2.563 17
12.182 -4.881 2.766 11
9.1499996 -3.596 1.288 1
10.052 -3.96 1.581 1
11.642 -4.599 2.0280001 2
12.464 -4.9400001 2.382 9
12.265 -4.8800001 2.556 11
12.206 -4.8759999 2.7550001 11
9.1009998 -3.5680001 1.27 1
0 0 0 50
11.422 -4.4990001 1.976 2
12.54 -4.954 2.382 2
12.296 -4.8740001 2.546 11
12.229 -4.8670001 2.7449999 11
9.0570002 -3.539 1.253 1
9.9399996 -3.892 1.54 1
11.082 -4.349 1.903 1
12.499 -4.9190001 2.358 2
12.328 -4.8670001 2.5369999 11
12.252 -4.855 2.734 10
9.0050001 -3.506 1.235 1
9.8739996 -3.8510001 1.518 1
10.996 -4.2969999 1.874 1
12.412 -4.8629999 2.325 2
12.353 -4.8540001 2.526 11
12.289 -4.8460002 2.7260001 11
8.9320002 -3.4619999 1.214 1
9.8140001 -3.809 1.4960001 1
10.871 -4.2280002 1.839 1
12.292 -4.7909999 2.2869999 1
12.38 -4.8390002 2.5150001 9
12.324 -4.8319998 2.717 9
8.8929996 -3.4300001 1.198 2
9.7309999 -3.757 1.471 1
10.781 -4.1690001 1.8099999 1
12.162 -4.7129998 2.247 1
13.826 -5.3699999 2.79 2
15.247 -5.941 3.3399999 9
8.8319998 -3.3870001 1.179 2
9.6479998 -3.7030001 1.447 1
10.708 -4.1149998 1.784 1
12.013 -4.625 2.204 1
0 0 0 50
15.256 -5.902 3.3210001 8
8.7799997 -3.345 1.161 1
9.5880003 -3.655 1.425 1
10.607 -4.0479999 1.7539999 1
11.924 -4.5570002 2.171 1
13.555 -5.1919999 2.698 1
15.228 -5.8460002 3.293 7
8.7220001 -3.3 1.142 1
9.5170002 -3.602 1.403 1
10.575 -4.006 1.735 1
11.809 -4.4790001 2.135 1
0 0 0 50
15.209 -5.7919998 3.2690001 5
8.6800003 -3.2590001 1.126 2
9.4650002 -3.5539999 1.3839999 1
10.478 -3.937 1.705 1
11.748 -4.4190001 2.108 1
13.321 -5.0180001 2.6159999 1
15.19 -5.7329998 3.243 4
8.6459999 -3.2190001 1.1109999 2
0 0 0 50
10.386 -3.868 1.677 1
11.659 -4.3460002 2.0769999 1
13.085 -4.8829999 2.553 1
15.13 -5.6560001 3.2090001 3
8.5869999 -3.168 1.0930001 2
9.3439999 -3.4460001 1.342 1
10.312 -3.8039999 1.652 1
11.546 -4.2610002 2.0409999 1
0 0 0 50
15.086 -5.5809999 3.1789999 3
8.5419998 -3.1210001 1.076 2
9.2889996 -3.392 1.322 1
10.237 -3.7379999 1.627 1
11.504 -4.2020001 2.02 1
12.956 -4.7360001 2.493 1
14.939 -5.467 3.128 2
8.4980001 -3.073 1.061 2
9.2189999 -3.3310001 1.302 1
0 0 0 50
11.389 -4.1139998 1.985 1
13.072 -4.724 2.4979999 2
14.778 -5.3460002 3.075 2
8.4519997 -3.0220001 1.045 2
9.1759996 -3.2780001 1.284 1
10.094 -3.6040001 1.5779999 1
11.253 -4.0170002 1.947 1
12.672 -4.5250001 2.405 1
14.312 -5.1139998 2.9579999 1
8.4110003 -2.973 1.03 2
9.1289997 -3.2219999 1.266 1
10.057 -3.5469999 1.5599999 1
11.173 -3.9389999 1.919 1
12.603 -4.4439998 2.3759999 1
14.464 -5.1020002 2.9719999 14
8.3640003 -2.9189999 1.015 2
0 0 0 50
9.993 -3.4790001 1.539 1
11.093 -3.8599999 1.892 1
12.488 -4.3439999 2.3380001 1
14.229 -4.9510002 2.905 9
8.3249998 -2.8670001 1.001 2
9.0430002 -3.1099999 1.234 1
9.9379997 -3.4119999 1.518 1
10.996 -3.773 1.862 1
12.405 -4.2540002 2.3080001 1
14.169 -4.8590002 2.875 9
8.1309996 -2.7620001 0.96799999 2
7.1500001 -2.424 0.96700001 11
9.8809996 -3.345 1.499 1
10.953 -3.704 1.842 1
12.311 -4.1599998 2.2750001 1
14.167 -4.7859998 2.8570001 8
7.1550002 -2.395 0.84399998 26
7.086 -2.3670001 0.95099998 29
7.132 -2.378 1.074 11
10.902 -3.631 1.821 1
0 0 0 50
14.172 -4.7140002 2.8410001 5
7.0960002 -2.3399999 0.82999998 31
7.0580001 -2.322 0.94 31
7.0840001 -2.326 1.059 28
10.847 -3.556 1.8 1
12.213 -3.9990001 2.23 1
14.208 -4.6490002 2.832 3
7.0799999 -2.2980001 0.82099998 34
7.0300002 -2.2750001 0.92900002 36
7.0580001 -2.279 1.048 30
7.1700001 -2.3110001 1.182 0
12.047 -3.878 2.1860001 1
14.191 -4.5650001 2.813 3
7.0549998 -2.2509999 0.81099999 40
7.013 -2.2320001 0.92000002 45
7.0240002 -2.23 1.036 36
7.1370001 -2.2609999 1.169 9
12.013 -3.8 2.1670001 1
14.011 -4.427 2.7620001 2
