# .PCD v0.7 - Point Cloud Data file format
VERSION 0.7
FIELDS x y z intensity
SIZE 4 4 4 4
TYPE F F F F
COUNT 1 1 1 1
WIDTH 1616
HEIGHT 1
VIEWPOINT 0 0 0 1 0 0 0
POINTS 1616
DATA ascii
3.342 -1.839 -0.56900001 9
2.8 -1.581 -0.73900002 9
2.901 -1.623 -0.70899999 7
3 -1.664 -0.676 7
3.108 -1.711 -0.64099997 8
3.2290001 -1.765 -0.60600001 8
3.3440001 -1.816 -0.56699997 10
2.809 -1.5650001 -0.73900002 8
2.904 -1.603 -0.70700002 7
3.013 -1.65 -0.676 8
3.115 -1.692 -0.63999999 7
3.234 -1.744 -0.60500002 8
3.348 -1.794 -0.565 9
2.816 -1.548 -0.73799998 6
2.904 -1.582 -0.704 7
3.0139999 -1.628 -0.67299998 7
3.1259999 -1.675 -0.63999999 7
3.2460001 -1.727 -0.60500002 7
3.365 -1.778 -0.565 8
2.8199999 -1.529 -0.736 6
2.9230001 -1.5700001 -0.70599997 6
3.0320001 -1.615 -0.67500001 6
3.132 -1.654 -0.63800001 7
3.2460001 -1.702 -0.602 8
0 0 0 50
2.8239999 -1.508 -0.73299998 7
2.9289999 -1.551 -0.704 6
3.0350001 -1.592 -0.67199999 7
3.1429999 -1.636 -0.63700002 7
3.263 -1.686 -0.602 7
3.3729999 -1.7309999 -0.56099999 8
2.8399999 -1.495 -0.73400003 8
2.937 -1.531 -0.70300001 6
3.0369999 -1.5700001 -0.66900003 7
3.155 -1.617 -0.63700002 7
3.2639999 -1.661 -0.59899998 8
3.3859999 -1.71 -0.56 8
2.848 -1.476 -0.73299998 7
2.9460001 -1.513 -0.70200002 6
3.043 -1.549 -0.667 7
3.1619999 -1.596 -0.63499999 8
3.2780001 -1.642 -0.59799999 7
3.395 -1.688 -0.55900002 8
2.8510001 -1.454 -0.73000002 9
2.9530001 -1.492 -0.69999999 6
3.0599999 -1.533 -0.66799998 6
3.1659999 -1.573 -0.63200003 7
3.29 -1.622 -0.597 7
3.404 -1.666 -0.55699998 7
2.862 -1.436 -0.72899997 7
2.95 -1.466 -0.69499999 10
3.0639999 -1.5089999 -0.66500002 7
3.177 -1.552 -0.63099998 7
3.2950001 -1.597 -0.59500003 7
3.4159999 -1.6440001 -0.55500001 7
2.8710001 -1.4170001 -0.72799999 7
2.964 -1.449 -0.69499999 7
3.062 -1.483 -0.66100001 9
3.181 -1.528 -0.62800002 7
3.299 -1.573 -0.59200001 7
3.421 -1.618 -0.55299997 8
2.8800001 -1.397 -0.72600001 8
2.973 -1.428 -0.69300002 6
3.0840001 -1.469 -0.662 7
3.1889999 -1.506 -0.62599999 6
3.3110001 -1.551 -0.58999997 8
3.434 -1.597 -0.551 10
2.8959999 -1.38 -0.72600001 6
2.984 -1.409 -0.69199997 6
3.0869999 -1.444 -0.65899998 7
3.2049999 -1.487 -0.625 7
3.312 -1.524 -0.58700001 8
3.4419999 -1.572 -0.54900002 8
2.8989999 -1.357 -0.72299999 7
2.993 -1.387 -0.69 6
3.0929999 -1.421 -0.65600002 7
3.207 -1.46 -0.62199998 7
3.3269999 -1.503 -0.58600003 8
3.4489999 -1.546 -0.546 8
2.9159999 -1.339 -0.72299999 8
2.994 -1.362 -0.68599999 8
3.118 -1.405 -0.65700001 6
3.224 -1.441 -0.62099999 8
3.3429999 -1.482 -0.58499998 7
3.46 -1.522 -0.54400003 8
2.9130001 -1.313 -0.71799999 7
3.0120001 -1.344 -0.68599999 6
3.1210001 -1.38 -0.65399998 6
3.233 -1.4170001 -0.61900002 7
3.3559999 -1.459 -0.583 7
3.4690001 -1.497 -0.542 8
2.914 -1.288 -0.71399999 10
3.0190001 -1.321 -0.68400002 8
3.1289999 -1.357 -0.65200001 7
3.2409999 -1.393 -0.61699998 7
3.3670001 -1.4349999 -0.58099997 7
3.487 -1.475 -0.54100001 7
2.9300001 -1.2690001 -0.713 9
3.029 -1.299 -0.68199998 8
3.1370001 -1.3329999 -0.64899999 8
3.2509999 -1.37 -0.61500001 7
3.369 -1.4069999 -0.57700002 7
3.4879999 -1.446 -0.537 8
2.9460001 -1.25 -0.713 6
3.0339999 -1.275 -0.67900002 7
3.152 -1.312 -0.648 6
0 0 0 50
3.3900001 -1.387 -0.57700002 7
3.5009999 -1.421 -0.53500003 9
2.9530001 -1.227 -0.70999998 7
3.05 -1.255 -0.67799997 6
3.1600001 -1.2869999 -0.64499998 6
3.2679999 -1.3200001 -0.61000001 7
3.3889999 -1.357 -0.57300001 8
3.516 -1.398 -0.53399998 9
2.96 -1.2029999 -0.708 8
3.052 -1.229 -0.67400002 8
3.175 -1.266 -0.64399999 6
3.2820001 -1.2970001 -0.60799998 7
3.411 -1.337 -0.57300001 7
3.527 -1.372 -0.53100002 9
2.974 -1.183 -0.70700002 6
3.0610001 -1.206 -0.67199999 7
3.1689999 -1.2359999 -0.639 6
3.2920001 -1.273 -0.60600001 6
3.415 -1.309 -0.56900001 7
3.5369999 -1.345 -0.52899998 10
2.984 -1.16 -0.70499998 6
3.085 -1.188 -0.67299998 5
3.1849999 -1.215 -0.63800001 6
3.3069999 -1.25 -0.60399997 6
3.425 -1.283 -0.56699997 7
3.55 -1.3200001 -0.52700001 7
2.9809999 -1.133 -0.69999999 8
3.0810001 -1.159 -0.66799998 6
3.1960001 -1.191 -0.63599998 7
3.3180001 -1.225 -0.60299999 6
3.437 -1.258 -0.565 6
3.5569999 -1.2920001 -0.52399999 7
3 -1.113 -0.69999999 6
3.098 -1.138 -0.667 7
3.214 -1.169 -0.63599998 6
3.322 -1.197 -0.59899998 6
3.448 -1.232 -0.56300002 7
3.5680001 -1.265 -0.52200001 7
3.0090001 -1.09 -0.69800001 7
3.105 -1.113 -0.66500002 6
3.2149999 -1.142 -0.63200003 6
3.3329999 -1.1720001 -0.597 6
3.4649999 -1.2079999 -0.56099999 6
3.5840001 -1.24 -0.51999998 8
3.0220001 -1.067 -0.69599998 7
3.112 -1.0880001 -0.662 7
3.23 -1.118 -0.63 6
3.3440001 -1.147 -0.59500003 8
3.47 -1.1799999 -0.55800003 7
3.5910001 -1.211 -0.51700002 7
3.029 -1.043 -0.69400001 12
3.132 -1.067 -0.662 6
3.234 -1.091 -0.62699997 6
3.358 -1.123 -0.59399998 6
3.4890001 -1.156 -0.55699998 6
3.602 -1.184 -0.51499999 7
3.036 -1.018 -0.69099998 6
3.1300001 -1.039 -0.65799999 7
3.247 -1.067 -0.62599999 6
3.3699999 -1.097 -0.59200001 6
3.4890001 -1.126 -0.55400002 6
3.6159999 -1.1569999 -0.51300001 7
3.0450001 -0.99400002 -0.68900001 8
3.145 -1.016 -0.65700001 5
3.267 -1.045 -0.62599999 5
3.3859999 -1.073 -0.59100002 6
3.5039999 -1.101 -0.55199999 7
3.6300001 -1.13 -0.51200002 6
3.043 -0.96600002 -0.685 9
3.164 -0.99400002 -0.65700001 5
3.279 -1.02 -0.62400001 6
3.3900001 -1.045 -0.588 6
3.5079999 -1.072 -0.54900002 7
3.635 -1.101 -0.509 7
3.0650001 -0.94599998 -0.68599999 6
3.1719999 -0.96899998 -0.65399998 6
3.277 -0.991 -0.62 6
3.3989999 -1.018 -0.58499998 6
3.5280001 -1.0470001 -0.54900002 7
3.638 -1.0700001 -0.505 7
3.0780001 -0.92199999 -0.685 8
3.1719999 -0.94099998 -0.65100002 6
0 0 0 50
3.4089999 -0.991 -0.58399999 6
3.5280001 -1.017 -0.54500002 7
3.6670001 -1.048 -0.50599998 9
3.0739999 -0.89399999 -0.68000001 9
3.177 -0.91399997 -0.648 8
3.3050001 -0.94199997 -0.61799997 6
3.4189999 -0.96499997 -0.58200002 6
3.536 -0.98900002 -0.54299998 7
3.6730001 -1.018 -0.50300002 7
3.0880001 -0.87099999 -0.67900002 9
3.194 -0.89099997 -0.648 6
3.3039999 -0.91299999 -0.61400002 8
3.415 -0.93400002 -0.57800001 6
3.5510001 -0.96200001 -0.542 7
3.681 -0.98900002 -0.50099999 9
3.0969999 -0.84600002 -0.67799997 8
3.2049999 -0.866 -0.64700001 6
3.326 -0.88999999 -0.61500001 6
3.4449999 -0.91299999 -0.579 6
3.5610001 -0.935 -0.54000002 7
3.6900001 -0.95999998 -0.49900001 7
3.1110001 -0.82200003 -0.67699999 7
3.2090001 -0.83999997 -0.64399999 6
3.332 -0.86299998 -0.61299998 6
3.4419999 -0.88200003 -0.57499999 6
3.5639999 -0.90499997 -0.537 8
3.691 -0.92900002 -0.49599999 7
3.1199999 -0.79799998 -0.676 6
3.2179999 -0.81400001 -0.64300001 7
3.3340001 -0.83399999 -0.61000001 6
3.4579999 -0.85699999 -0.57499999 6
3.572 -0.87699997 -0.53500003 7
3.7049999 -0.90100002 -0.495 7
3.1199999 -0.76999998 -0.67299998 9
3.23 -0.78899997 -0.64200002 6
3.342 -0.80699998 -0.60799998 6
3.457 -0.82700002 -0.57200003 6
3.5910001 -0.85100001 -0.53500003 6
3.7179999 -0.87199998 -0.49399999 7
3.141 -0.74800003 -0.67400002 7
3.243 -0.76300001 -0.64099997 6
3.352 -0.78100002 -0.60699999 5
3.4590001 -0.79799998 -0.56900001 5
3.589 -0.81900001 -0.53200001 5
3.724 -0.84200001 -0.49200001 6
3.145 -0.72100002 -0.67199999 5
0 0 0 50
3.3559999 -0.75300002 -0.60500002 5
3.4809999 -0.773 -0.56999999 5
3.6010001 -0.792 -0.53100002 6
3.73 -0.81199998 -0.49000001 7
3.1500001 -0.69499999 -0.67000002 5
3.2520001 -0.70899999 -0.63700002 5
3.3759999 -0.72799999 -0.60500002 5
3.4920001 -0.745 -0.56900001 5
3.6229999 -0.76599997 -0.53100002 5
3.744 -0.78399998 -0.48899999 8
3.155 -0.66799998 -0.66799998 7
3.2579999 -0.68199998 -0.63499999 6
3.3710001 -0.69800001 -0.602 6
3.4920001 -0.71499997 -0.56599998 5
3.6259999 -0.73500001 -0.52899998 5
3.747 -0.75300002 -0.48699999 6
3.1630001 -0.64300001 -0.667 7
3.2639999 -0.65499997 -0.634 6
3.3870001 -0.67299998 -0.602 5
3.5039999 -0.68800002 -0.56599998 5
3.6300001 -0.70599997 -0.52700001 5
3.7479999 -0.722 -0.48500001 7
3.1689999 -0.616 -0.66600001 7
3.2739999 -0.62900001 -0.634 5
3.3940001 -0.64499998 -0.60100001 5
3.5090001 -0.66000003 -0.56400001 5
3.645 -0.67799997 -0.52700001 6
3.7609999 -0.69199997 -0.484 7
3.174 -0.58999997 -0.66500002 7
3.2809999 -0.602 -0.63300002 5
3.3970001 -0.61699998 -0.59899998 5
3.5209999 -0.63200003 -0.56400001 5
3.651 -0.648 -0.52600002 7
3.7739999 -0.66299999 -0.484 6
3.1930001 -0.56599998 -0.66600001 6
3.2869999 -0.57599998 -0.63200003 5
3.3989999 -0.588 -0.597 6
3.52 -0.602 -0.56199998 5
3.655 -0.61799997 -0.52499998 6
3.7820001 -0.63300002 -0.48300001 7
3.1930001 -0.53799999 -0.66399997 6
3.3039999 -0.55000001 -0.63300002 5
3.4130001 -0.56199998 -0.59799999 5
3.529 -0.574 -0.56099999 5
3.661 -0.58899999 -0.523 5
3.7880001 -0.60299999 -0.48199999 12
3.2 -0.51200002 -0.66399997 5
3.3050001 -0.52200001 -0.63099998 5
3.427 -0.53500003 -0.59799999 5
3.5369999 -0.546 -0.56099999 5
3.6670001 -0.56 -0.523 5
3.79 -0.57200003 -0.47999999 7
3.2090001 -0.486 -0.66399997 6
3.3099999 -0.495 -0.63 5
3.4189999 -0.505 -0.59500003 5
3.5150001 -0.51300001 -0.55500001 4
3.6789999 -0.53100002 -0.523 5
3.7980001 -0.542 -0.47999999 6
3.2130001 -0.46000001 -0.66299999 6
0 0 0 50
3.4389999 -0.47999999 -0.597 5
3.546 -0.48800001 -0.55900002 5
3.684 -0.50099999 -0.52200001 5
3.8050001 -0.51200002 -0.479 7
3.22 -0.43399999 -0.66299999 12
3.3169999 -0.44100001 -0.62800002 6
3.4400001 -0.45100001 -0.59600002 5
3.553 -0.46000001 -0.55900002 5
3.6830001 -0.47099999 -0.52100003 6
3.813 -0.48199999 -0.479 7
3.224 -0.40700001 -0.662 5
3.3169999 -0.41299999 -0.62699997 7
3.437 -0.42199999 -0.59399998 5
3.563 -0.43200001 -0.55900002 5
3.6889999 -0.44100001 -0.51999998 5
3.8139999 -0.45100001 -0.47799999 7
3.23 -0.38 -0.662 5
3.3269999 -0.38600001 -0.62800002 6
3.4579999 -0.396 -0.597 5
3.5610001 -0.40200001 -0.55800003 5
3.6889999 -0.41100001 -0.51899999 5
3.829 -0.421 -0.479 7
3.2290001 -0.35299999 -0.66100001 5
3.329 -0.359 -0.62699997 6
3.45 -0.36700001 -0.59500003 5
3.5810001 -0.375 -0.56 6
3.6989999 -0.382 -0.51999998 5
3.836 -0.391 -0.479 6
3.2290001 -0.32699999 -0.66000003 6
3.336 -0.33199999 -0.62800002 6
3.4619999 -0.34 -0.59600002 5
3.5699999 -0.345 -0.55699998 5
3.7030001 -0.35299999 -0.51999998 5
3.8329999 -0.36000001 -0.47799999 7
0 0 0 50
3.3369999 -0.30500001 -0.62699997 5
3.4690001 -0.31200001 -0.59600002 5
3.5869999 -0.317 -0.56 5
3.704 -0.32300001 -0.51899999 5
3.8329999 -0.329 -0.47799999 7
3.237 -0.27399999 -0.66100001 5
3.336 -0.27700001 -0.62699997 5
3.4630001 -0.28299999 -0.59500003 5
3.5780001 -0.287 -0.55800003 5
3.714 -0.29300001 -0.51999998 5
3.8440001 -0.29899999 -0.479 7
3.25 -0.24699999 -0.66299999 5
3.3429999 -0.25 -0.62800002 5
3.4619999 -0.25400001 -0.59399998 6
3.5769999 -0.25799999 -0.55699998 5
3.71 -0.26300001 -0.51999998 5
3.8399999 -0.26699999 -0.47799999 6
3.2509999 -0.221 -0.66299999 5
3.348 -0.223 -0.62800002 5
3.4690001 -0.226 -0.59500003 5
3.586 -0.229 -0.55900002 5
3.72 -0.234 -0.52100003 5
3.8469999 -0.237 -0.479 7
3.2520001 -0.19400001 -0.66299999 5
3.3499999 -0.19499999 -0.62900001 6
3.474 -0.198 -0.59600002 5
3.598 -0.20100001 -0.56099999 5
3.727 -0.204 -0.52200001 5
3.8499999 -0.206 -0.479 6
3.2509999 -0.167 -0.66299999 5
3.355 -0.168 -0.63 5
3.464 -0.17 -0.59500003 5
3.586 -0.17200001 -0.55900002 5
3.7219999 -0.17399999 -0.52200001 5
3.8559999 -0.176 -0.47999999 6
3.2520001 -0.14 -0.66299999 4
3.3570001 -0.141 -0.63 4
3.47 -0.142 -0.59600002 5
0 0 0 50
3.7349999 -0.145 -0.52399999 5
3.8599999 -0.146 -0.48100001 6
3.2550001 -0.114 -0.66399997 5
3.3659999 -0.114 -0.63200003 4
3.467 -0.114 -0.59600002 4
3.5899999 -0.114 -0.56 5
3.724 -0.114 -0.523 5
3.8570001 -0.114 -0.48199999 7
3.2539999 -0.086999997 -0.66399997 5
3.368 -0.086000003 -0.63300002 4
3.4809999 -0.086000003 -0.59899998 5
3.6040001 -0.085000001 -0.56300002 5
3.7249999 -0.083999999 -0.52399999 5
3.8610001 -0.083999999 -0.48300001 5
3.2539999 -0.059999999 -0.66500002 5
3.3640001 -0.059 -0.63300002 5
3.457 -0.057 -0.59600002 4
3.602 -0.056000002 -0.56400001 5
3.733 -0.055 -0.52600002 5
3.865 -0.052999999 -0.484 6
3.2509999 -0.033 -0.66500002 5
3.365 -0.030999999 -0.634 5
3.483 -0.028999999 -0.60100001 5
3.592 -0.027000001 -0.56300002 5
3.7349999 -0.025 -0.52700001 5
3.8540001 -0.023 -0.484 7
3.2679999 -0.0070000002 -0.67000002 4
3.3659999 -0.0040000002 -0.63499999 5
3.4809999 -0.001 -0.602 5
3.6010001 0.001 -0.565 5
3.7249999 0.0040000002 -0.52700001 5
3.8610001 0.0070000002 -0.486 6
3.256 0.018999999 -0.66799998 5
3.3670001 0.022 -0.63700002 4
3.4860001 0.026000001 -0.60399997 5
3.599 0.028999999 -0.56599998 5
3.7320001 0.033 -0.52899998 6
3.8559999 0.037999999 -0.486 6
3.2590001 0.045000002 -0.67000002 6
3.3559999 0.048999999 -0.63599998 5
3.4809999 0.054000001 -0.60399997 5
3.598 0.057999998 -0.56800002 5
3.7279999 0.063000001 -0.52999997 5
3.8570001 0.068000004 -0.48800001 6
3.257 0.071999997 -0.671 4
3.3599999 0.075999998 -0.63800001 4
3.457 0.081 -0.60100001 4
3.5799999 0.086000003 -0.56599998 4
3.7290001 0.093000002 -0.53100002 6
3.8570001 0.097999997 -0.49000001 5
0 0 0 50
3.358 0.104 -0.639 5
3.4849999 0.11 -0.60799998 5
3.6029999 0.115 -0.57099998 5
3.734 0.122 -0.53299999 5
3.862 0.12899999 -0.49200001 6
3.2360001 0.124 -0.67000002 3
3.352 0.13 -0.63999999 6
3.4560001 0.13600001 -0.60500002 4
3.5929999 0.14399999 -0.57200003 5
3.7049999 0.15099999 -0.53100002 4
3.855 0.15899999 -0.493 6
3.2539999 0.15099999 -0.67500001 5
3.359 0.15700001 -0.64300001 5
3.4820001 0.16500001 -0.611 5
3.5940001 0.17200001 -0.574 5
3.7279999 0.18099999 -0.53600001 5
3.8599999 0.189 -0.495 6
3.253 0.177 -0.67699999 7
3.365 0.184 -0.64600003 5
3.4549999 0.191 -0.60799998 4
3.589 0.2 -0.57499999 5
3.7219999 0.20900001 -0.537 5
3.859 0.219 -0.49700001 6
3.247 0.20200001 -0.67799997 6
3.352 0.20999999 -0.64600003 5
3.4749999 0.219 -0.61400002 5
3.582 0.228 -0.57599998 5
3.7160001 0.23800001 -0.53899997 6
3.855 0.248 -0.49900001 6
3.247 0.228 -0.68000001 6
3.3559999 0.237 -0.64899999 5
3.474 0.24699999 -0.616 5
3.582 0.25600001 -0.57800001 5
3.687 0.26499999 -0.537 4
3.8540001 0.278 -0.50099999 6
3.247 0.25400001 -0.68199998 6
3.3559999 0.26300001 -0.65100002 5
3.454 0.27200001 -0.61400002 5
3.549 0.28099999 -0.57499999 4
3.7179999 0.296 -0.54400003 6
3.8499999 0.308 -0.50300002 6
3.25 0.28 -0.68599999 6
3.346 0.289 -0.65100002 5
3.4619999 0.30000001 -0.61799997 6
3.582 0.31099999 -0.583 5
3.711 0.324 -0.54500002 5
3.825 0.33500001 -0.50199997 5
3.2449999 0.30599999 -0.68699998 5
3.345 0.31600001 -0.65399998 5
3.4360001 0.32499999 -0.616 4
3.576 0.33899999 -0.58399999 5
3.7049999 0.352 -0.54699999 5
3.849 0.366 -0.50800002 6
3.244 0.331 -0.68900001 5
3.352 0.34200001 -0.65799999 5
3.4360001 0.35100001 -0.61900002 5
3.573 0.366 -0.58600003 5
0 0 0 50
3.8369999 0.39399999 -0.509 6
3.234 0.35499999 -0.69 5
3.3369999 0.36700001 -0.65799999 5
3.4030001 0.37400001 -0.61500001 4
3.5669999 0.39300001 -0.588 8
3.6949999 0.40700001 -0.551 5
3.832 0.42300001 -0.51099998 6
3.2309999 0.38 -0.69199997 7
3.339 0.39300001 -0.66100001 5
3.414 0.40200001 -0.62 4
3.556 0.41800001 -0.58899999 5
3.694 0.435 -0.55299997 6
3.829 0.45199999 -0.51300001 5
3.2260001 0.40400001 -0.69400001 6
3.335 0.41800001 -0.662 5
3.3929999 0.42500001 -0.61900002 4
3.556 0.44600001 -0.59200001 5
3.6930001 0.463 -0.55599999 5
3.8239999 0.47999999 -0.51499999 6
3.2160001 0.428 -0.69499999 5
3.3310001 0.44299999 -0.66500002 5
3.4260001 0.456 -0.62800002 5
3.5699999 0.47499999 -0.597 6
3.684 0.49000001 -0.55699998 5
3.835 0.50999999 -0.51999998 6
3.2260001 0.45500001 -0.69999999 5
3.3169999 0.46700001 -0.66500002 5
3.447 0.484 -0.63499999 5
3.5369999 0.49700001 -0.59399998 5
3.6800001 0.51700002 -0.56 5
3.822 0.537 -0.52100003 6
3.22 0.479 -0.70099998 6
3.3210001 0.493 -0.66900003 5
3.4449999 0.50999999 -0.63700002 5
3.5179999 0.52100003 -0.59399998 4
3.6800001 0.54400003 -0.56300002 5
3.8150001 0.56400001 -0.523 6
3.2179999 0.50300002 -0.704 5
3.319 0.51700002 -0.671 5
3.444 0.53600001 -0.63999999 5
3.5480001 0.551 -0.602 5
3.6630001 0.56900001 -0.56300002 5
3.8150001 0.59200001 -0.52600002 6
3.211 0.52600002 -0.70599997 5
0 0 0 50
3.437 0.56 -0.64200002 5
3.54 0.57599998 -0.60399997 5
3.664 0.59600002 -0.56599998 5
3.8110001 0.61900002 -0.52899998 6
3.204 0.54900002 -0.70700002 6
3.3069999 0.565 -0.67500001 5
3.4300001 0.58499998 -0.64399999 6
3.5339999 0.602 -0.60600001 5
3.6530001 0.62099999 -0.56800002 5
3.809 0.64700001 -0.53200001 5
3.2019999 0.57300001 -0.70999998 5
3.3080001 0.58999997 -0.67900002 5
3.4300001 0.61000001 -0.64700001 5
3.5339999 0.62800002 -0.60900003 5
3.631 0.64399999 -0.56800002 5
3.8010001 0.67299998 -0.53399998 6
3.1989999 0.59600002 -0.713 6
3.2950001 0.61199999 -0.67900002 5
3.421 0.634 -0.64899999 5
3.533 0.65399998 -0.61199999 5
3.668 0.67699999 -0.57599998 6
3.799 0.69999999 -0.53600001 6
3.1889999 0.61799997 -0.713 5
3.2939999 0.63700002 -0.68199998 5
3.4130001 0.65799999 -0.64999998 6
3.5280001 0.67799997 -0.61400002 6
3.6570001 0.70200002 -0.57800001 6
3.7950001 0.727 -0.53899997 6
3.1889999 0.64200002 -0.71700001 6
3.283 0.65899998 -0.68300003 5
3.405 0.68099999 -0.65200001 5
3.5079999 0.69999999 -0.61400002 5
3.6429999 0.72500002 -0.579 5
3.7880001 0.75300002 -0.54100001 7
3.1789999 0.66299999 -0.71799999 6
3.2869999 0.68300003 -0.68699998 6
3.402 0.70499998 -0.65399998 5
3.5090001 0.72500002 -0.61799997 6
3.6440001 0.75099999 -0.58200002 6
3.78 0.778 -0.54299998 7
3.1730001 0.685 -0.72000003 5
3.277 0.70499998 -0.68800002 8
3.381 0.72500002 -0.65399998 5
3.5150001 0.75099999 -0.62099999 5
3.602 0.76800001 -0.57800001 4
3.78 0.80500001 -0.546 6
3.1659999 0.70700002 -0.72100002 8
3.276 0.72799999 -0.69099998 6
3.3929999 0.75199997 -0.65899998 6
3.51 0.77499998 -0.62400001 6
3.638 0.80199999 -0.58700001 6
3.777 0.82999998 -0.54900002 7
3.1689999 0.73000002 -0.72500002 6
3.2739999 0.75099999 -0.69400001 6
3.3989999 0.77700001 -0.66299999 6
3.5050001 0.79900002 -0.62599999 6
3.6270001 0.824 -0.58899999 5
3.7739999 0.85600001 -0.55199999 7
3.165 0.75199997 -0.727 6
3.2709999 0.773 -0.69599998 6
3.3840001 0.79699999 -0.66399997 6
3.5090001 0.824 -0.63 6
3.6229999 0.84799999 -0.59100002 6
3.7679999 0.88 -0.55400002 6
3.1589999 0.77200001 -0.72899997 6
3.263 0.79400003 -0.69800001 6
3.3900001 0.82200003 -0.66799998 6
3.4890001 0.84299999 -0.62900001 6
3.6110001 0.87 -0.59200001 5
3.7639999 0.90499997 -0.55599999 6
3.161 0.79500002 -0.73299998 5
3.263 0.81699997 -0.70099998 6
3.382 0.84299999 -0.66900003 6
3.4879999 0.86699998 -0.63200003 6
3.6040001 0.89300001 -0.59399998 5
3.7590001 0.92900002 -0.55800003 7
3.151 0.81400001 -0.73299998 6
3.256 0.83700001 -0.70200002 6
3.368 0.86299998 -0.66900003 5
3.4960001 0.89200002 -0.63599998 9
3.6170001 0.92000002 -0.59899998 6
3.747 0.95099998 -0.55900002 6
3.152 0.83600003 -0.73699999 6
3.257 0.86000001 -0.70499998 6
3.3759999 0.88700002 -0.67400002 6
3.4860001 0.91299999 -0.63700002 6
3.6170001 0.94400001 -0.60100001 6
3.747 0.97500002 -0.56199998 6
3.1440001 0.85500002 -0.73699999 7
3.2509999 0.88 -0.70700002 6
3.3659999 0.90700001 -0.67400002 6
3.483 0.935 -0.639 5
3.6040001 0.96399999 -0.602 5
3.7349999 0.99699998 -0.56300002 6
3.142 0.875 -0.74000001 7
3.25 0.90100002 -0.70899999 6
3.365 0.92900002 -0.67699999 6
3.4779999 0.95599997 -0.64099997 6
3.5940001 0.98500001 -0.60299999 6
3.744 1.023 -0.56699997 7
3.145 0.89600003 -0.74299997 5
3.2349999 0.917 -0.708 6
3.345 0.94400001 -0.67500001 7
3.474 0.977 -0.64300001 5
3.5929999 1.007 -0.60500002 5
3.743 1.046 -0.56900001 7
3.135 0.91399997 -0.74299997 5
3.24 0.93900001 -0.71200001 7
3.3599999 0.97000003 -0.68099999 6
3.473 0.99800003 -0.64499998 6
3.586 1.028 -0.60600001 5
3.737 1.068 -0.56999999 6
3.135 0.93300003 -0.74599999 6
3.2379999 0.95899999 -0.71399999 6
3.3529999 0.98900002 -0.68199998 6
3.4719999 1.02 -0.64700001 6
3.5899999 1.05 -0.60900003 5
3.734 1.089 -0.57200003 6
3.1289999 0.95099998 -0.74699998 6
3.2260001 0.97600001 -0.713 5
3.3559999 1.01 -0.68400002 6
3.4649999 1.039 -0.648 6
3.5899999 1.072 -0.611 5
3.7290001 1.11 -0.57300001 7
3.131 0.97100002 -0.74900001 5
3.2309999 0.99699998 -0.71700001 6
3.346 1.027 -0.68400002 6
3.4549999 1.056 -0.648 5
3.5899999 1.0930001 -0.61299998 6
3.71 1.126 -0.57200003 6
3.1210001 0.986 -0.74900001 6
3.2349999 1.017 -0.71899998 6
3.348 1.0470001 -0.68699998 6
3.448 1.074 -0.648 5
3.5880001 1.113 -0.61400002 6
3.7079999 1.147 -0.57300001 6
3.1270001 1.006 -0.75199997 6
3.2309999 1.034 -0.72000003 6
3.3469999 1.066 -0.68800002 6
3.4560001 1.096 -0.65200001 6
3.576 1.13 -0.61400002 6
3.704 1.1670001 -0.574 6
3.122 1.022 -0.75300002 7
3.2179999 1.048 -0.71899998 6
3.349 1.085 -0.69 6
3.4560001 1.115 -0.653 6
3.5829999 1.152 -0.616 6
0 0 0 50
3.119 1.039 -0.75300002 6
3.223 1.067 -0.722 6
3.3410001 1.101 -0.69 7
3.46 1.136 -0.65499997 6
3.576 1.169 -0.616 6
3.6919999 1.2029999 -0.57499999 6
3.115 1.054 -0.75400001 7
3.22 1.084 -0.722 6
3.3429999 1.119 -0.69099998 7
3.4579999 1.153 -0.65600002 6
3.585 1.191 -0.61900002 7
3.7090001 1.227 -0.57800001 6
3.119 1.071 -0.75599998 8
3.217 1.099 -0.72299999 6
3.3369999 1.1339999 -0.69099998 7
3.4360001 1.163 -0.653 5
3.5739999 1.205 -0.61799997 6
3.7290001 1.253 -0.58200002 7
3.1240001 1.089 -0.75800002 7
3.2190001 1.1160001 -0.72399998 6
3.3529999 1.1569999 -0.69499999 6
3.4560001 1.187 -0.65700001 7
3.55 1.214 -0.61500001 5
3.7219999 1.2690001 -0.58200002 8
3.1210001 1.103 -0.75800002 6
3.22 1.132 -0.72500002 6
3.3440001 1.17 -0.69400001 7
3.448 1.2 -0.65600002 6
3.579 1.2410001 -0.62 6
3.7249999 1.2869999 -0.583 7
3.119 1.117 -0.75800002 5
3.2219999 1.147 -0.72600001 6
3.325 1.178 -0.69099998 13
3.4560001 1.219 -0.65799999 6
3.5840001 1.2589999 -0.62099999 6
3.7260001 1.304 -0.583 7
3.1210001 1.131 -0.759 6
3.2290001 1.164 -0.72799999 6
3.346 1.2 -0.69499999 6
3.457 1.234 -0.65799999 7
3.5910001 1.277 -0.62199998 6
3.733 1.323 -0.58399999 7
3.1199999 1.1440001 -0.759 6
3.2290001 1.178 -0.72799999 6
3.352 1.216 -0.69599998 6
3.457 1.249 -0.65799999 7
3.5829999 1.289 -0.62099999 6
3.6930001 1.324 -0.57700002 5
3.115 1.155 -0.75700003 6
3.224 1.189 -0.72600001 6
3.3510001 1.229 -0.69599998 7
3.4560001 1.262 -0.65799999 6
3.589 1.306 -0.62199998 6
3.7349999 1.354 -0.583 7
3.1240001 1.171 -0.759 6
3.2320001 1.205 -0.72799999 6
3.355 1.244 -0.69599998 6
3.448 1.273 -0.65600002 6
3.575 1.314 -0.61799997 6
0 0 0 50
3.1210001 1.181 -0.75800002 8
3.234 1.217 -0.72799999 6
3.358 1.257 -0.69599998 6
3.4649999 1.291 -0.65799999 7
3.5969999 1.335 -0.62199998 6
3.73 1.38 -0.58099997 7
3.1329999 1.197 -0.75999999 6
3.234 1.228 -0.727 6
3.3640001 1.271 -0.69700003 7
3.4679999 1.304 -0.65799999 7
3.5869999 1.3430001 -0.61900002 6
3.737 1.395 -0.58099997 7
3.131 1.206 -0.759 6
3.233 1.238 -0.72600001 6
3.3440001 1.274 -0.69099998 6
3.4590001 1.312 -0.65499997 6
3.5799999 1.352 -0.616 6
3.71 1.396 -0.57499999 6
3.1340001 1.216 -0.75800002 5
3.2360001 1.248 -0.72500002 6
3.359 1.29 -0.69300002 6
3.4530001 1.319 -0.65200001 5
3.586 1.365 -0.616 6
3.724 1.4119999 -0.57599998 6
3.1340001 1.225 -0.75700003 6
3.2449999 1.261 -0.72600001 6
3.3510001 1.295 -0.69 6
3.47 1.335 -0.65399998 6
3.576 1.3710001 -0.61199999 5
3.73 1.425 -0.57499999 6
3.142 1.2359999 -0.75700003 6
3.256 1.273 -0.72600001 6
3.368 1.3099999 -0.69199997 6
3.47 1.344 -0.65200001 6
3.5999999 1.3890001 -0.61400002 6
3.7290001 1.434 -0.57300001 6
3.1500001 1.2460001 -0.75700003 6
3.25 1.278 -0.72299999 6
3.3740001 1.3200001 -0.69099998 6
3.4790001 1.355 -0.65100002 6
3.602 1.398 -0.61299998 6
3.7449999 1.448 -0.57300001 6
3.1530001 1.253 -0.75599998 6
3.263 1.29 -0.72399998 6
3.3729999 1.326 -0.68800002 6
3.4809999 1.363 -0.64899999 6
3.6040001 1.405 -0.61000001 6
3.75 1.457 -0.57099998 7
3.155 1.26 -0.75400001 7
3.2639999 1.296 -0.722 6
3.3800001 1.335 -0.68699998 6
3.471 1.365 -0.64499998 5
3.599 1.41 -0.60699999 4
3.763 1.469 -0.56999999 7
3.1600001 1.266 -0.75300002 7
3.2690001 1.303 -0.72000003 6
3.3900001 1.344 -0.68699998 7
3.5120001 1.386 -0.64999998 6
3.6099999 1.419 -0.60600001 5
3.766 1.476 -0.56800002 7
3.1700001 1.274 -0.75300002 6
3.276 1.309 -0.71899998 6
3.391 1.349 -0.68400002 7
3.51 1.39 -0.64700001 6
3.6199999 1.428 -0.60399997 5
3.7579999 1.477 -0.56300002 6
3.1700001 1.277 -0.75 6
3.283 1.3150001 -0.71799999 6
3.401 1.3559999 -0.68300003 6
3.53 1.401 -0.64700001 6
3.628 1.434 -0.602 4
3.7739999 1.487 -0.56199998 6
3.191 1.288 -0.75199997 5
3.2839999 1.318 -0.71499997 6
3.4100001 1.362 -0.68099999 6
3.523 1.401 -0.64200002 6
3.6329999 1.439 -0.60000002 4
3.7809999 1.492 -0.56 6
3.1800001 1.285 -0.74599999 6
3.286 1.3200001 -0.71200001 6
3.4159999 1.3660001 -0.67900002 7
3.529 1.404 -0.63999999 6
3.645 1.4450001 -0.59799999 5
3.79 1.498 -0.55800003 6
3.194 1.29 -0.745 6
3.2980001 1.325 -0.71100003 6
3.4260001 1.37 -0.67799997 7
3.5450001 1.4119999 -0.639 6
3.6589999 1.451 -0.597 6
3.802 1.503 -0.55500001 6
3.198 1.2920001 -0.74299997 6
3.3050001 1.3279999 -0.70899999 6
3.4319999 1.372 -0.67500001 7
3.55 1.413 -0.63599998 6
3.6689999 1.455 -0.59399998 6
3.809 1.506 -0.55199999 6
3.201 1.2920001 -0.74000001 6
3.3110001 1.329 -0.70599997 6
3.4349999 1.372 -0.67199999 7
3.559 1.415 -0.634 6
3.6900001 1.462 -0.59399998 6
3.8269999 1.511 -0.551 7
3.2160001 1.296 -0.73900002 6
3.3180001 1.33 -0.704 7
3.4449999 1.374 -0.67000002 7
3.5710001 1.418 -0.63200003 6
3.6989999 1.4630001 -0.59100002 6
3.839 1.5140001 -0.54799998 7
0 0 0 50
3.329 1.331 -0.70200002 7
3.454 1.374 -0.667 6
3.5810001 1.419 -0.62900001 7
3.6900001 1.457 -0.58499998 6
3.8540001 1.516 -0.546 7
3.223 1.291 -0.73299998 6
3.335 1.329 -0.699 7
3.438 1.364 -0.66000003 6
3.5799999 1.414 -0.625 6
3.7049999 1.4579999 -0.583 6
3.8469999 1.5089999 -0.54000002 6
3.2360001 1.2920001 -0.73100001 6
3.345 1.3279999 -0.69599998 6
3.4300001 1.3559999 -0.65399998 5
3.579 1.409 -0.62 6
3.7260001 1.461 -0.58200002 7
3.858 1.508 -0.537 6
3.2460001 1.29 -0.72899997 6
3.3540001 1.326 -0.69400001 6
3.4449999 1.3559999 -0.65200001 5
3.579 1.403 -0.616 6
3.7290001 1.456 -0.57700002 6
3.8670001 1.506 -0.53399998 7
3.2490001 1.285 -0.72500002 6
3.3659999 1.325 -0.69199997 6
3.467 1.358 -0.65200001 6
3.5940001 1.402 -0.61400002 6
3.733 1.451 -0.57300001 6
3.881 1.503 -0.52999997 5
3.2579999 1.281 -0.72299999 6
3.3670001 1.317 -0.68699998 7
3.4749999 1.353 -0.64899999 6
3.615 1.402 -0.61199999 6
3.7409999 1.446 -0.56999999 5
3.8959999 1.501 -0.528 7
3.2650001 1.276 -0.72000003 6
3.3759999 1.312 -0.685 7
3.473 1.344 -0.64399999 6
3.618 1.395 -0.60799998 6
3.763 1.4450001 -0.56800002 6
3.904 1.495 -0.52399999 6
3.2690001 1.268 -0.71600002 7
3.388 1.308 -0.68199998 7
3.4920001 1.342 -0.64200002 5
3.6170001 1.3839999 -0.60299999 5
3.7590001 1.434 -0.56300002 6
3.9159999 1.489 -0.51999998 6
3.283 1.2640001 -0.71399999 6
3.3940001 1.3 -0.67900002 6
3.5190001 1.342 -0.64300001 6
3.6340001 1.38 -0.60100001 6
3.7720001 1.428 -0.56 5
3.9330001 1.484 -0.51800001 7
3.2850001 1.2539999 -0.70999998 6
3.405 1.294 -0.67699999 7
3.536 1.337 -0.64099997 6
3.6329999 1.369 -0.59600002 5
3.7909999 1.423 -0.55800003 6
3.9289999 1.471 -0.51200002 5
3.299 1.248 -0.70899999 7
3.4089999 1.284 -0.67299998 6
3.546 1.329 -0.63800001 7
3.6440001 1.3609999 -0.59299999 6
3.799 1.414 -0.55400002 6
3.941 1.462 -0.509 5
3.3050001 1.239 -0.70499998 6
3.414 1.273 -0.66900003 6
3.55 1.318 -0.634 6
3.671 1.358 -0.59299999 6
3.809 1.404 -0.551 6
3.948 1.451 -0.505 5
3.313 1.229 -0.70200002 6
3.4419999 1.27 -0.67000002 6
3.5250001 1.296 -0.625 5
0 0 0 50
3.8280001 1.397 -0.54900002 6
3.9660001 1.443 -0.50199997 6
3.3310001 1.222 -0.70200002 6
3.4330001 1.253 -0.66299999 6
3.562 1.295 -0.62699997 6
3.6700001 1.329 -0.583 5
3.8280001 1.382 -0.54400003 7
3.9809999 1.433 -0.49900001 6
3.3369999 1.21 -0.69800001 6
3.447 1.244 -0.662 6
3.572 1.283 -0.62400001 6
3.6819999 1.318 -0.58099997 5
3.835 1.368 -0.54000002 6
3.9879999 1.419 -0.495 6
3.339 1.196 -0.69400001 8
3.4560001 1.232 -0.65899998 6
3.5780001 1.27 -0.62099999 6
3.7049999 1.3099999 -0.57999998 6
3.8469999 1.3559999 -0.537 6
3.99 1.402 -0.491 4
3.342 1.182 -0.69099998 8
3.4579999 1.217 -0.65499997 6
3.5829999 1.255 -0.61699998 6
3.7060001 1.294 -0.57499999 6
3.8529999 1.34 -0.53299999 5
4.0250001 1.396 -0.49000001 7
3.3540001 1.17 -0.68900001 7
3.4879999 1.211 -0.65600002 6
3.5899999 1.2410001 -0.61400002 6
3.727 1.283 -0.574 7
3.8610001 1.325 -0.52999997 6
4.0479999 1.385 -0.48899999 8
3.3610001 1.156 -0.68599999 7
3.4749999 1.189 -0.64899999 7
3.612 1.2309999 -0.61299998 7
3.7360001 1.268 -0.57099998 6
3.8800001 1.313 -0.528 6
4.0149999 1.354 -0.47999999 5
3.3659999 1.14 -0.68300003 7
3.4809999 1.174 -0.64600003 6
3.6110001 1.212 -0.60900003 6
3.7309999 1.247 -0.56599998 6
3.8729999 1.29 -0.523 6
4.0339999 1.34 -0.47799999 6
3.3729999 1.125 -0.68000001 6
3.4779999 1.154 -0.64200002 6
3.625 1.198 -0.60699999 7
3.7650001 1.239 -0.56699997 7
3.881 1.273 -0.51999998 5
4.046 1.323 -0.47499999 7
3.3770001 1.108 -0.67699999 6
0 0 0 50
3.6270001 1.179 -0.60299999 6
3.7590001 1.217 -0.56199998 6
3.8970001 1.257 -0.51800001 6
4.052 1.303 -0.472 7
3.3829999 1.09 -0.67400002 6
3.503 1.123 -0.63800001 6
3.642 1.163 -0.602 7
3.7550001 1.194 -0.55800003 6
3.928 1.245 -0.51800001 7
4.0609999 1.284 -0.46900001 7
3.391 1.074 -0.67199999 6
3.5220001 1.109 -0.63800001 6
3.6370001 1.141 -0.597 6
3.7850001 1.182 -0.55800003 7
3.9360001 1.225 -0.51499999 7
4.0710001 1.2640001 -0.46599999 7
3.3929999 1.054 -0.66900003 6
3.5109999 1.086 -0.63200003 7
3.6559999 1.125 -0.597 7
3.7539999 1.151 -0.55000001 5
3.921 1.198 -0.50999999 6
4.0809999 1.243 -0.46399999 7
3.402 1.0369999 -0.667 6
3.5109999 1.0650001 -0.62900001 7
3.6530001 1.103 -0.59299999 7
3.7869999 1.1390001 -0.551 7
3.9100001 1.171 -0.505 5
4.0749998 1.217 -0.45899999 6
3.4030001 1.016 -0.66399997 6
3.5190001 1.046 -0.62699997 6
3.654 1.081 -0.58999997 6
3.8039999 1.1210001 -0.551 7
3.918 1.15 -0.50300002 5
4.086 1.196 -0.45699999 6
3.421 1 -0.66399997 8
3.5239999 1.025 -0.62400001 6
3.661 1.0599999 -0.58700001 6
3.7809999 1.09 -0.54400003 6
3.9449999 1.133 -0.50300002 6
4.0999999 1.174 -0.456 7
3.4170001 0.977 -0.66000003 6
3.5280001 1.0039999 -0.62199998 6
3.6719999 1.04 -0.58600003 7
3.806 1.073 -0.54400003 6
3.9719999 1.1160001 -0.50300002 7
4.1279998 1.156 -0.456 7
3.4219999 0.95599997 -0.65799999 6
3.5350001 0.98299998 -0.62 6
3.6730001 1.017 -0.583 6
3.7950001 1.046 -0.54000002 6
3.947 1.084 -0.49700001 6
4.0929999 1.12 -0.449 6
3.4230001 0.93400002 -0.65499997 6
3.5409999 0.96200001 -0.61799997 5
3.678 0.99400002 -0.58099997 6
3.826 1.03 -0.54100001 6
3.948 1.058 -0.49399999 6
4.1100001 1.098 -0.44800001 7
3.4219999 0.91100001 -0.65200001 7
3.533 0.93599999 -0.61400002 6
3.6860001 0.972 -0.579 6
3.835 1.007 -0.54000002 6
3.971 1.038 -0.49399999 7
4.1170001 1.073 -0.44600001 7
3.4260001 0.889 -0.64999998 6
3.5409999 0.91399997 -0.61299998 6
3.684 0.94700003 -0.57700002 6
3.836 0.98100001 -0.53799999 6
3.967 1.011 -0.491 7
4.1259999 1.048 -0.44400001 7
3.428 0.866 -0.648 7
3.546 0.89200002 -0.61199999 6
3.688 0.92299998 -0.57499999 6
3.8280001 0.95300001 -0.53399998 7
3.99 0.99000001 -0.49200001 7
4.1300001 1.021 -0.442 8
3.425 0.84200001 -0.64499998 8
3.5480001 0.86699998 -0.60900003 6
3.6919999 0.898 -0.57300001 6
3.8299999 0.92699999 -0.53200001 7
0 0 0 50
4.1160002 0.98799998 -0.43799999 6
3.4300001 0.81900001 -0.64399999 7
3.5539999 0.84399998 -0.60799998 6
3.678 0.86900002 -0.56900001 6
3.829 0.89999998 -0.52999997 7
3.983 0.93199998 -0.486 6
4.1220002 0.96100003 -0.43700001 6
3.4419999 0.79799998 -0.64399999 6
3.5420001 0.81599998 -0.60399997 6
3.7019999 0.84799999 -0.56999999 6
3.839 0.87599999 -0.52899998 7
3.984 0.90499997 -0.484 8
4.1329999 0.935 -0.43599999 7
3.4389999 0.77200001 -0.64099997 6
3.5639999 0.796 -0.60600001 6
3.6849999 0.81800002 -0.56599998 5
3.832 0.847 -0.52600002 7
3.9849999 0.87699997 -0.48300001 7
4.1529999 0.91000003 -0.43599999 7
3.4389999 0.74800003 -0.63999999 6
3.5450001 0.76599997 -0.60100001 6
3.7030001 0.796 -0.56699997 7
3.846 0.82300001 -0.52600002 7
3.9860001 0.84799999 -0.48100001 7
4.1550002 0.88 -0.435 7
3.4449999 0.72399998 -0.639 6
3.5439999 0.74000001 -0.59899998 7
3.7019999 0.76899999 -0.565 6
3.8340001 0.792 -0.523 7
3.9809999 0.81800002 -0.479 7
4.1469998 0.84899998 -0.433 8
3.4489999 0.69999999 -0.63800001 6
3.5569999 0.71700001 -0.59899998 6
3.6960001 0.741 -0.56199998 7
3.839 0.76499999 -0.52200001 7
3.9809999 0.78899997 -0.477 7
4.1430001 0.81800002 -0.43099999 9
3.4419999 0.67299998 -0.63499999 6
3.5610001 0.69199997 -0.59799999 6
3.6949999 0.713 -0.56099999 6
3.8340001 0.736 -0.51999998 7
3.987 0.76099998 -0.477 7
4.1370001 0.78600001 -0.42899999 9
3.4430001 0.648 -0.634 6
3.5569999 0.66500002 -0.59600002 6
3.6889999 0.685 -0.55800003 7
3.8380001 0.708 -0.51899999 7
3.987 0.73199999 -0.47499999 7
4.1479998 0.75700003 -0.428 8
3.441 0.62099999 -0.63200003 6
3.5899999 0.64399999 -0.60100001 5
3.727 0.66399997 -0.56300002 6
3.8299999 0.67799997 -0.51700002 7
4.0079999 0.70499998 -0.47600001 6
4.1430001 0.72500002 -0.42699999 7
3.4419999 0.59500003 -0.63099998 6
3.553 0.61000001 -0.59299999 6
3.6889999 0.62900001 -0.55599999 5
3.842 0.65100002 -0.51700002 6
3.9719999 0.66900003 -0.47099999 7
4.1560001 0.69599998 -0.42699999 7
3.4389999 0.56900001 -0.62900001 5
3.5580001 0.58399999 -0.59299999 6
3.723 0.60699999 -0.56 6
3.825 0.61900002 -0.514 7
3.9749999 0.63999999 -0.47 7
4.1599998 0.66500002 -0.426 7
3.4400001 0.54299998 -0.62800002 5
3.5510001 0.55599999 -0.58999997 6
3.697 0.57499999 -0.55500001 5
0 0 0 50
3.984 0.611 -0.47099999 7
4.1329999 0.62900001 -0.42300001 7
3.4489999 0.51800001 -0.62900001 5
3.5469999 0.528 -0.58899999 4
3.6930001 0.546 -0.55299997 6
3.855 0.565 -0.51599997 6
3.9660001 0.57700002 -0.46799999 7
4.1370001 0.59799999 -0.42199999 7
3.4330001 0.48899999 -0.625 5
3.562 0.50300002 -0.58999997 5
3.684 0.51599997 -0.551 5
3.8269999 0.53100002 -0.51099998 7
3.9860001 0.54900002 -0.46900001 6
4.1389999 0.56599998 -0.42199999 8
3.448 0.465 -0.62699997 5
3.5550001 0.47400001 -0.588 6
3.6900001 0.48800001 -0.551 5
3.823 0.50199997 -0.50999999 6
3.984 0.51800001 -0.46799999 6
4.125 0.53200001 -0.41999999 6
3.451 0.43799999 -0.62599999 4
3.5480001 0.44600001 -0.58600003 5
3.697 0.46000001 -0.551 6
3.8399999 0.47400001 -0.51099998 6
3.97 0.48500001 -0.46599999 6
4.1149998 0.49900001 -0.41800001 6
3.4430001 0.41 -0.62400001 5
3.5539999 0.419 -0.58700001 5
3.688 0.43000001 -0.54900002 5
3.826 0.442 -0.509 6
3.9649999 0.45300001 -0.465 6
4.1240001 0.46700001 -0.41800001 8
3.4400001 0.382 -0.62300003 4
3.5510001 0.391 -0.58600003 9
3.697 0.40200001 -0.55000001 5
3.823 0.41100001 -0.50800002 6
3.951 0.421 -0.46200001 6
4.1279998 0.435 -0.41800001 7
3.45 0.35600001 -0.62400001 5
3.546 0.36199999 -0.58399999 5
3.6889999 0.37200001 -0.54799998 6
3.796 0.37799999 -0.50400001 6
3.9619999 0.38999999 -0.463 6
4.1209998 0.40200001 -0.417 6
3.4400001 0.32800001 -0.62199998 5
3.5420001 0.333 -0.583 5
3.6889999 0.34299999 -0.54799998 6
3.8440001 0.35299999 -0.50999999 6
3.9749999 0.36000001 -0.46399999 6
4.1160002 0.368 -0.41600001 7
3.441 0.301 -0.62099999 5
0 0 0 50
3.7019999 0.31400001 -0.54900002 5
3.823 0.31999999 -0.50599998 5
3.954 0.32699999 -0.461 5
4.0970001 0.33399999 -0.414 6
3.4349999 0.273 -0.62 5
3.543 0.27700001 -0.58200002 5
3.6930001 0.28400001 -0.54699999 5
3.8269999 0.28999999 -0.50599998 5
3.9679999 0.296 -0.46200001 6
4.1170001 0.30199999 -0.41499999 7
3.4349999 0.245 -0.61900002 5
3.552 0.249 -0.583 4
3.661 0.252 -0.542 5
3.826 0.259 -0.50599998 5
3.9619999 0.26300001 -0.461 6
4.1149998 0.26899999 -0.41499999 7
3.438 0.21699999 -0.61900002 5
3.5450001 0.219 -0.58099997 5
3.6900001 0.22400001 -0.546 5
3.813 0.227 -0.50400001 5
3.9579999 0.23100001 -0.46000001 6
4.1059999 0.235 -0.414 7
3.431 0.189 -0.61799997 6
3.549 0.191 -0.58200002 5
3.6489999 0.192 -0.54000002 5
3.806 0.19599999 -0.50199997 5
3.928 0.197 -0.45699999 5
4.1009998 0.20100001 -0.41299999 7
3.4300001 0.161 -0.61699998 5
3.527 0.161 -0.57700002 4
3.6760001 0.164 -0.54299998 5
3.7950001 0.164 -0.50099999 5
3.9630001 0.167 -0.46000001 7
4.0960002 0.168 -0.412 6
3.4319999 0.133 -0.61699998 5
3.5450001 0.133 -0.57999998 5
3.654 0.133 -0.54000002 5
3.7939999 0.134 -0.5 5
3.948 0.134 -0.458 6
4.0970001 0.134 -0.41100001 6
3.428 0.105 -0.616 5
3.5450001 0.104 -0.57999998 4
3.6429999 0.102 -0.537 4
3.8039999 0.102 -0.50099999 5
3.95 0.102 -0.458 6
4.0640001 0.098999999 -0.40799999 5
3.4260001 0.077 -0.61500001 5
3.536 0.075000003 -0.57800001 4
3.6730001 0.072999999 -0.542 5
3.8069999 0.071000002 -0.50099999 5
3.95 0.068999998 -0.458 6
4.0949998 0.066 -0.41100001 6
3.428 0.048999999 -0.61500001 5
0 0 0 50
3.671 0.043000001 -0.54100001 5
3.8010001 0.039999999 -0.5 6
3.9419999 0.035999998 -0.456 5
4.0929999 0.033 -0.41 6
3.424 0.02 -0.61400002 4
3.5469999 0.017000001 -0.579 5
3.6619999 0.012 -0.53899997 5
3.7980001 0.0080000004 -0.49900001 5
3.944 0.003 -0.456 6
4.0929999 -0.001 -0.41 6
3.424 -0.0070000002 -0.61400002 5
3.5339999 -0.012 -0.57599998 4
3.658 -0.017000001 -0.53799999 5
3.8050001 -0.022 -0.49900001 6
3.9349999 -0.028000001 -0.45500001 6
4.0840001 -0.035 -0.40799999 6
3.4230001 -0.035999998 -0.61299998 5
3.54 -0.041000001 -0.57700002 5
3.664 -0.046999998 -0.53899997 5
3.7809999 -0.054000001 -0.49599999 5
3.937 -0.061000001 -0.454 6
4.0819998 -0.068999998 -0.40799999 7
3.421 -0.064000003 -0.61199999 4
3.5339999 -0.071000002 -0.57599998 5
3.6600001 -0.078000002 -0.53799999 5
3.7909999 -0.085000001 -0.49700001 5
3.9400001 -0.093999997 -0.454 6
4.086 -0.103 -0.40700001 7
3.418 -0.093000002 -0.611 4
3.53 -0.1 -0.574 5
3.648 -0.108 -0.53500003 4
3.786 -0.117 -0.49599999 5
3.938 -0.127 -0.454 6
4.0780001 -0.13699999 -0.40599999 7
3.421 -0.121 -0.61199999 4
3.5250001 -0.13 -0.57300001 5
3.6470001 -0.139 -0.53500003 4
3.783 -0.149 -0.495 5
3.901 -0.15899999 -0.449 5
4.0760002 -0.171 -0.405 7
3.4130001 -0.15000001 -0.61000001 5
3.526 -0.15899999 -0.57300001 5
3.661 -0.17 -0.53600001 5
3.7590001 -0.18000001 -0.491 4
3.9260001 -0.193 -0.45100001 5
4.0799999 -0.206 -0.405 6
3.404 -0.178 -0.60799998 5
3.527 -0.189 -0.57300001 5
3.6289999 -0.199 -0.53100002 4
3.7750001 -0.212 -0.493 5
0 0 0 50
4.0770001 -0.241 -0.40400001 7
3.4100001 -0.207 -0.60799998 4
3.526 -0.219 -0.57200003 4
3.6489999 -0.23100001 -0.53399998 5
3.7839999 -0.245 -0.493 6
3.9260001 -0.259 -0.44999999 6
4.073 -0.27500001 -0.403 7
3.4070001 -0.236 -0.60699999 5
3.517 -0.248 -0.56999999 4
3.6359999 -0.26100001 -0.53100002 4
3.7550001 -0.27500001 -0.48899999 4
3.9219999 -0.29300001 -0.449 6
4.0650001 -0.30899999 -0.40200001 6
3.404 -0.264 -0.60600001 5
3.5190001 -0.278 -0.56999999 5
3.6210001 -0.29100001 -0.52899998 4
3.7690001 -0.308 -0.49000001 5
3.921 -0.32600001 -0.44800001 6
4.0599999 -0.34400001 -0.40000001 7
3.4000001 -0.29300001 -0.60500002 5
3.5179999 -0.308 -0.56900001 5
3.642 -0.324 -0.53100002 5
3.7820001 -0.34200001 -0.491 5
3.9159999 -0.359 -0.447 5
4.0609999 -0.37900001 -0.40000001 6
3.4030001 -0.32300001 -0.60500002 5
3.5120001 -0.338 -0.56800002 5
3.638 -0.35499999 -0.52999997 5
3.7720001 -0.373 -0.48899999 5
3.9100001 -0.39300001 -0.44499999 6
4.0679998 -0.41499999 -0.39899999 7
3.3840001 -0.34999999 -0.60100001 8
3.5139999 -0.36899999 -0.56699997 5
0 0 0 50
3.77 -0.40599999 -0.48800001 6
3.9100001 -0.42699999 -0.44400001 6
4.066 -0.44999999 -0.398 7
3.395 -0.38100001 -0.60299999 5
3.503 -0.39700001 -0.565 5
3.648 -0.419 -0.52999997 5
3.7809999 -0.44 -0.48899999 5
3.9089999 -0.461 -0.44299999 6
4.066 -0.48500001 -0.39700001 7
3.3940001 -0.41 -0.602 4
3.506 -0.428 -0.565 5
3.6400001 -0.44999999 -0.528 6
3.7720001 -0.472 -0.48699999 5
3.905 -0.49399999 -0.442 6
4.0609999 -0.51999998 -0.396 7
3.398 -0.44 -0.602 5
3.5079999 -0.45899999 -0.56400001 5
3.6359999 -0.48100001 -0.52700001 5
3.773 -0.505 -0.486 5
3.905 -0.528 -0.44100001 6
4.0549998 -0.55500001 -0.39399999 7
3.392 -0.46900001 -0.60000002 7
3.5050001 -0.48899999 -0.56300002 5
3.612 -0.509 -0.52200001 4
3.763 -0.53600001 -0.484 5
3.908 -0.56300002 -0.44 6
4.0630002 -0.59200001 -0.39399999 7
3.3859999 -0.498 -0.59899998 6
3.5020001 -0.51899999 -0.56199998 5
3.6289999 -0.54299998 -0.52399999 5
3.7650001 -0.56999999 -0.48300001 6
0 0 0 50
4.0510001 -0.62599999 -0.391 6
3.395 -0.52899998 -0.59899998 5
3.5009999 -0.55000001 -0.56099999 5
3.6300001 -0.57499999 -0.523 5
3.756 -0.60100001 -0.48100001 6
3.914 -0.63300002 -0.43900001 6
4.0619998 -0.66399997 -0.391 6
3.388 -0.55699998 -0.59799999 6
3.517 -0.58399999 -0.56300002 4
3.6259999 -0.60699999 -0.52200001 5
3.7739999 -0.63700002 -0.48199999 6
3.902 -0.66500002 -0.43599999 6
4.0560002 -0.69800001 -0.389 7
3.391 -0.58700001 -0.597 6
3.5020001 -0.611 -0.56 5
3.6389999 -0.64099997 -0.523 6
3.757 -0.66799998 -0.479 6
3.9170001 -0.70300001 -0.43700001 6
4.0539999 -0.73400003 -0.38800001 7
3.388 -0.61699998 -0.59600002 5
3.5009999 -0.64300001 -0.55900002 5
3.6359999 -0.67299998 -0.52100003 5
3.7479999 -0.69999999 -0.477 5
3.9059999 -0.736 -0.43399999 6
4.0599999 -0.77200001 -0.38699999 7
3.3889999 -0.64700001 -0.59600002 6
3.4990001 -0.67400002 -0.55800003 5
3.6329999 -0.70499998 -0.51999998 5
3.7679999 -0.73699999 -0.47799999 6
3.885 -0.76599997 -0.43099999 5
4.0609999 -0.80800003 -0.38499999 7
3.3870001 -0.67699999 -0.59399998 5
3.4990001 -0.70499998 -0.55699998 5
3.6359999 -0.73799998 -0.51899999 6
3.74 -0.76499999 -0.47299999 5
3.9070001 -0.80599999 -0.43200001 6
4.0539999 -0.84399998 -0.38299999 8
0 0 0 50
3.5039999 -0.73699999 -0.55599999 5
3.635 -0.77100003 -0.51800001 6
3.7609999 -0.80400002 -0.47499999 5
3.9119999 -0.84299999 -0.43099999 6
4.0570002 -0.88099998 -0.382 7
3.3900001 -0.73900002 -0.59299999 5
3.4630001 -0.75999999 -0.54900002 4
3.6329999 -0.80299997 -0.51700002 5
3.766 -0.83899999 -0.47400001 5
3.9100001 -0.87800002 -0.42899999 7
4.0609999 -0.91900003 -0.38100001 7
3.398 -0.77100003 -0.59399998 4
3.5039999 -0.801 -0.55500001 5
3.6340001 -0.83600003 -0.51599997 6
3.7590001 -0.87199998 -0.472 5
3.9059999 -0.91299999 -0.42699999 6
4.0539999 -0.95499998 -0.37799999 8
3.3870001 -0.80000001 -0.59100002 5
3.4990001 -0.83099997 -0.55299997 5
3.6300001 -0.86799997 -0.514 5
0 0 0 50
3.914 -0.94999999 -0.42699999 7
4.0570002 -0.99299997 -0.377 8
3.3840001 -0.82999998 -0.58999997 5
3.4990001 -0.86400002 -0.55199999 5
3.625 -0.90100002 -0.51200002 5
3.763 -0.94099998 -0.47 6
3.9119999 -0.986 -0.42500001 6
4.0650001 -1.0319999 -0.37599999 7
3.3840001 -0.861 -0.58899999 4
3.5009999 -0.89600003 -0.551 5
3.6289999 -0.935 -0.51099998 6
3.74 -0.97000003 -0.46599999 5
3.914 -1.022 -0.42399999 7
4.0570002 -1.067 -0.373 7
3.3859999 -0.89300001 -0.588 6
3.49 -0.92500001 -0.54799998 5
3.6229999 -0.96700001 -0.509 6
3.7650001 -1.011 -0.46700001 6
3.9059999 -1.056 -0.421 6
4.0630002 -1.107 -0.37200001 8
0 0 0 50
3.494 -0.95899999 -0.54799998 6
3.6289999 -1.002 -0.509 6
3.7639999 -1.046 -0.46599999 6
3.9159999 -1.096 -0.421 7
4.0570002 -1.143 -0.37 7
3.3759999 -0.95200002 -0.58499998 5
3.497 -0.99199998 -0.54799998 6
3.632 -1.036 -0.50800002 7
3.766 -1.081 -0.465 7
3.9089999 -1.1289999 -0.41800001 8
4.066 -1.183 -0.36899999 10
3.3789999 -0.98400003 -0.58499998 6
3.5020001 -1.025 -0.54699999 6
3.6270001 -1.068 -0.50599998 8
3.7720001 -1.118 -0.46399999 8
0 0 0 50
4.0669999 -1.222 -0.36700001 9
3.3770001 -1.015 -0.58399999 6
3.497 -1.057 -0.54500002 6
3.6229999 -1.101 -0.505 6
3.7750001 -1.154 -0.463 8
3.9100001 -1.2029999 -0.41499999 8
3.9300001 -1.2180001 -0.35299999 12
3.375 -1.046 -0.58200002 6
3.4990001 -1.09 -0.54500002 6
3.6340001 -1.1390001 -0.505 7
3.766 -1.187 -0.46000001 8
3.914 -1.242 -0.414 8
3.8599999 -1.233 -0.345 35
3.3800001 -1.079 -0.58200002 6
3.4890001 -1.12 -0.542 6
3.6370001 -1.173 -0.50400001 7
3.7650001 -1.222 -0.45899999 6
3.9100001 -1.277 -0.412 9
3.8069999 -1.252 -0.338 45
3.3800001 -1.1109999 -0.58200002 6
3.4979999 -1.156 -0.54299998 6
3.6329999 -1.207 -0.50199997 7
3.7679999 -1.2589999 -0.458 7
3.9119999 -1.3150001 -0.41 8
3.7780001 -1.278 -0.33399999 54
3.375 -1.142 -0.57999998 6
3.4890001 -1.186 -0.54000002 6
3.608 -1.233 -0.498 6
3.7479999 -1.288 -0.454 6
3.881 -1.341 -0.405 9
3.7539999 -1.306 -0.33000001 59
3.3759999 -1.174 -0.579 6
0 0 0 50
3.6070001 -1.266 -0.49700001 6
3.7639999 -1.329 -0.45500001 7
3.8789999 -1.378 -0.40400001 9
3.75 -1.341 -0.32800001 54
3.378 -1.207 -0.579 6
3.4960001 -1.255 -0.53899997 6
3.6129999 -1.303 -0.49599999 6
3.7520001 -1.3609999 -0.45199999 6
3.901 -1.423 -0.40400001 8
3.756 -1.3789999 -0.32699999 52
3.382 -1.2410001 -0.579 6
3.48 -1.2819999 -0.53600001 6
3.6040001 -1.334 -0.49399999 6
3.77 -1.403 -0.45300001 8
3.914 -1.466 -0.40400001 8
3.76 -1.4170001 -0.32499999 45
3.375 -1.27 -0.57700002 6
3.4890001 -1.319 -0.537 6
3.6389999 -1.382 -0.498 7
3.7620001 -1.437 -0.44999999 7
3.9219999 -1.506 -0.403 8
3.7750001 -1.459 -0.32499999 36
3.3740001 -1.302 -0.57599998 6
3.483 -1.35 -0.53500003 5
3.6300001 -1.414 -0.495 8
3.766 -1.474 -0.44999999 7
3.892 -1.5319999 -0.39899999 6
3.957 -1.567 -0.33899999 9
3.368 -1.332 -0.57499999 6
3.4779999 -1.381 -0.53299999 5
3.5969999 -1.4349999 -0.49000001 6
3.7590001 -1.508 -0.44800001 8
0 0 0 50
4.0650001 -1.649 -0.34599999 9
3.3710001 -1.3660001 -0.57499999 6
3.4760001 -1.414 -0.53200001 6
3.631 -1.484 -0.493 7
3.76 -1.544 -0.447 8
3.9170001 -1.618 -0.398 8
4.0749998 -1.693 -0.345 8
3.372 -1.399 -0.574 7
3.484 -1.451 -0.53299999 6
3.6140001 -1.512 -0.49000001 6
3.7679999 -1.585 -0.44600001 7
3.9200001 -1.6569999 -0.39700001 7
4.0630002 -1.728 -0.34299999 7
3.3699999 -1.431 -0.574 6
3.477 -1.482 -0.53100002 6
3.6259999 -1.552 -0.491 7
3.7679999 -1.6210001 -0.44499999 7
3.9230001 -1.697 -0.396 7
4.0770001 -1.773 -0.34200001 8
3.3640001 -1.461 -0.57300001 6
3.4749999 -1.515 -0.53100002 5
3.635 -1.591 -0.49200001 7
3.7449999 -1.647 -0.442 6
0 0 0 50
4.073 -1.811 -0.34 8
3.3659999 -1.495 -0.57300001 6
3.49 -1.556 -0.53200001 6
3.6289999 -1.624 -0.49000001 7
3.743 -1.683 -0.44100001 6
3.9159999 -1.77 -0.39300001 7
4.072 -1.851 -0.33899999 8
3.3599999 -1.525 -0.57099998 6
3.4760001 -1.5829999 -0.52999997 6
3.5969999 -1.645 -0.48500001 7
3.7320001 -1.715 -0.43799999 6
3.8959999 -1.799 -0.38999999 8
4.073 -1.892 -0.33700001 9
3.3629999 -1.559 -0.57200003 7
3.477 -1.618 -0.52999997 7
3.5940001 -1.679 -0.484 7
3.7320001 -1.752 -0.43799999 7
3.8989999 -1.84 -0.389 8
4.0689998 -1.931 -0.336 9
3.355 -1.589 -0.56999999 7
3.4630001 -1.646 -0.52700001 6
3.5969999 -1.716 -0.484 7
3.7609999 -1.802 -0.44 8
3.904 -1.88 -0.389 10
4.0710001 -1.971 -0.33500001 9
3.342 -1.6160001 -0.56800002 6
3.464 -1.6799999 -0.52700001 7
3.5780001 -1.742 -0.48100001 6
3.733 -1.826 -0.43599999 7
3.8870001 -1.91 -0.38600001 7
4.0710001 -2.0120001 -0.33399999 10
3.346 -1.65 -0.56900001 7
3.464 -1.714 -0.52700001 8
3.595 -1.786 -0.484 7
3.7349999 -1.864 -0.43599999 8
3.8929999 -1.952 -0.38600001 8
4.0689998 -2.0510001 -0.333 9
3.342 -1.681 -0.56900001 7
3.4619999 -1.747 -0.52700001 8
3.5799999 -1.814 -0.48100001 7
3.7349999 -1.9 -0.43599999 8
3.905 -1.9960001 -0.38699999 9
4.0580001 -2.085 -0.331 8
0 0 0 50
3.448 -1.774 -0.52499998 6
3.5769999 -1.847 -0.48100001 7
3.744 -1.941 -0.43700001 8
3.8889999 -2.0250001 -0.38499999 8
4.0619998 -2.1270001 -0.33000001 9
3.3440001 -1.748 -0.56999999 8
3.464 -1.816 -0.528 8
3.5699999 -1.878 -0.47999999 7
3.7260001 -1.9680001 -0.435 7
3.8859999 -2.063 -0.384 7
4.0599999 -2.1659999 -0.329 8
3.335 -1.776 -0.56900001 7
3.46 -1.847 -0.528 8
3.575 -1.916 -0.48100001 7
3.733 -2.0079999 -0.435 8
3.892 -2.1040001 -0.38499999 8
4.0679998 -2.21 -0.33000001 10
3.3369999 -1.809 -0.56999999 8
3.4579999 -1.88 -0.528 8
3.569 -1.947 -0.48100001 7
3.7320001 -2.0439999 -0.435 8
3.882 -2.1359999 -0.38299999 7
4.0580001 -2.244 -0.329 10
3.3269999 -1.836 -0.56999999 7
3.438 -1.903 -0.52600002 7
3.5669999 -1.9809999 -0.48100001 7
3.72 -2.0739999 -0.43399999 7
3.881 -2.1730001 -0.38299999 8
4.0560002 -2.2820001 -0.32800001 9
3.3169999 -1.863 -0.56900001 7
3.4489999 -1.942 -0.528 7
3.566 -2.0139999 -0.48100001 7
3.7219999 -2.1110001 -0.435 8
0 0 0 50
4.052 -2.319 -0.32800001 8
3.319 -1.896 -0.56999999 7
3.4400001 -1.97 -0.528 8
3.5450001 -2.0369999 -0.479 6
3.7119999 -2.141 -0.43399999 8
3.8789999 -2.247 -0.384 8
4.0510001 -2.3570001 -0.32800001 9
3.313 -1.925 -0.57099998 8
