# .PCD v0.7 - Point Cloud Data file format
VERSION 0.7
FIELDS x y z intensity
SIZE 4 4 4 4
TYPE F F F F
COUNT 1 1 1 1
WIDTH 1625
HEIGHT 1
VIEWPOINT 0 0 0 1 0 0 0
POINTS 1625
DATA ascii
4.2659998 3.461 -0.51700002 1
4.52 3.6619999 -0.45699999 1
4.7670002 3.8599999 -0.38600001 1
3.6960001 3.023 -0.67500001 5
3.8670001 3.152 -0.62599999 3
4.059 3.299 -0.57300001 3
4.277 3.4690001 -0.51499999 1
4.527 3.6670001 -0.454 1
0 0 0 50
3.701 3.0250001 -0.67299998 5
3.8740001 3.154 -0.62300003 3
4.0689998 3.3039999 -0.57099998 4
4.2789998 3.4679999 -0.51200002 1
4.5279999 3.665 -0.44999999 1
4.79 3.8759999 -0.38 1
3.707 3.0250001 -0.67000002 5
3.881 3.1559999 -0.62099999 4
4.0770001 3.306 -0.56800002 4
4.2930002 3.474 -0.51099998 1
4.5380001 3.668 -0.44800001 1
4.8049998 3.8829999 -0.37799999 1
3.7160001 3.026 -0.66900003 4
3.8889999 3.1559999 -0.61900002 3
4.079 3.3010001 -0.565 4
4.3060002 3.4779999 -0.50800002 1
4.5500002 3.671 -0.44499999 1
4.823 3.8900001 -0.375 1
3.7190001 3.02 -0.66500002 5
3.8889999 3.1470001 -0.61500001 4
4.0949998 3.3050001 -0.56300002 4
4.3099999 3.4719999 -0.505 3
4.5580001 3.668 -0.442 1
4.8239999 3.881 -0.37099999 1
3.7279999 3.0179999 -0.66299999 4
0 0 0 50
4.1009998 3.3 -0.56 4
4.3169999 3.467 -0.50199997 4
4.5599999 3.658 -0.43799999 1
4.8309999 3.8740001 -0.36700001 1
3.737 3.013 -0.66100001 4
3.911 3.1429999 -0.611 4
4.1079998 3.293 -0.55699998 4
4.3239999 3.46 -0.49900001 3
4.5710001 3.654 -0.435 1
4.842 3.8699999 -0.36399999 1
3.7409999 3.003 -0.65799999 4
3.915 3.132 -0.60699999 4
4.1160002 3.2850001 -0.55400002 3
4.3299999 3.45 -0.495 4
4.5799999 3.645 -0.43200001 1
4.8540001 3.862 -0.361 1
3.7509999 2.9960001 -0.65600002 4
3.927 3.1259999 -0.60500002 3
4.1209998 3.273 -0.551 3
4.342 3.4419999 -0.493 2
4.5819998 3.6289999 -0.428 1
4.8649998 3.8529999 -0.35800001 1
3.76 2.9860001 -0.653 4
3.9400001 3.119 -0.60299999 3
4.1279998 3.26 -0.54799998 4
4.3530002 3.4319999 -0.49000001 4
4.5949998 3.619 -0.42500001 1
4.8720002 3.8369999 -0.354 1
3.76 2.9679999 -0.64899999 4
3.938 3.098 -0.59899998 3
0 0 0 50
4.3590002 3.4159999 -0.48699999 3
4.6139998 3.6129999 -0.42300001 1
4.8769999 3.819 -0.35100001 1
3.779 2.9630001 -0.648 3
3.9449999 3.0829999 -0.59600002 4
4.1459999 3.233 -0.542 4
4.368 3.4000001 -0.484 4
4.612 3.5880001 -0.419 1
4.881 3.796 -0.347 1
3.7839999 2.9449999 -0.64499998 4
3.9590001 3.072 -0.59399998 4
4.151 3.214 -0.53899997 4
4.3759999 3.3829999 -0.48100001 4
4.619 3.5680001 -0.41600001 1
4.8850002 3.773 -0.34299999 1
3.786 2.924 -0.64099997 4
3.957 3.0469999 -0.58999997 3
4.1570001 3.194 -0.53600001 4
4.3850002 3.3640001 -0.47799999 1
4.6209998 3.5420001 -0.412 1
4.895 3.7520001 -0.34 1
3.7920001 2.905 -0.63800001 5
3.9649999 3.0280001 -0.58700001 3
4.1659999 3.175 -0.53299999 4
0 0 0 50
4.6329999 3.523 -0.41 1
4.9060001 3.73 -0.338 1
3.799 2.885 -0.63499999 5
3.9679999 3.0039999 -0.58399999 3
4.1750002 3.154 -0.53100002 4
4.3959999 3.3169999 -0.472 3
4.6399999 3.497 -0.40700001 1
4.9099998 3.701 -0.33399999 1
3.8069999 2.8640001 -0.63300002 5
3.9760001 2.983 -0.58099997 3
4.1760001 3.1259999 -0.52700001 4
4.3979998 3.2869999 -0.46799999 4
4.6430001 3.4679999 -0.40400001 1
4.9159999 3.671 -0.331 1
3.8080001 2.8369999 -0.62900001 4
3.9790001 2.9560001 -0.57800001 3
4.1890001 3.1059999 -0.52499998 4
4.4050002 3.2609999 -0.46599999 4
4.6469998 3.438 -0.40099999 2
4.9190001 3.638 -0.329 1
3.816 2.8139999 -0.62699997 4
3.99 2.934 -0.57599998 4
4.1929998 3.0769999 -0.52200001 4
4.4060001 3.2290001 -0.463 4
4.6479998 3.4030001 -0.398 1
4.9250002 3.6059999 -0.32600001 1
3.823 2.789 -0.625 4
3.99 2.9030001 -0.57300001 3
4.1890001 3.0420001 -0.51899999 4
4.408 3.1960001 -0.46000001 4
4.6490002 3.369 -0.39500001 1
4.914 3.5610001 -0.32300001 1
3.8239999 2.7590001 -0.62099999 4
0 0 0 50
4.1950002 3.0120001 -0.51700002 4
4.414 3.1659999 -0.458 5
4.6490002 3.332 -0.39199999 3
4.914 3.5209999 -0.31999999 1
3.829 2.7309999 -0.61900002 4
3.994 2.8410001 -0.56699997 4
4.2030001 2.984 -0.51499999 5
4.4099998 3.1259999 -0.45500001 4
4.658 3.3 -0.391 3
4.9250002 3.4879999 -0.31900001 1
3.8210001 2.6930001 -0.61400002 5
4.0029998 2.8139999 -0.565 4
4.2010002 2.9460001 -0.51200002 4
4.415 3.092 -0.45300001 4
4.6500001 3.2550001 -0.38800001 1
4.9200001 3.4430001 -0.31600001 1
3.835 2.6689999 -0.61400002 4
4.0110002 2.7850001 -0.56400001 4
4.204 2.9119999 -0.509 4
4.427 3.063 -0.45100001 4
4.6570001 3.2190001 -0.38600001 1
4.9239998 3.404 -0.315 1
3.8369999 2.6370001 -0.611 4
4.0100002 2.7490001 -0.56099999 4
4.204 2.8759999 -0.50700003 4
0 0 0 50
4.6490002 3.1730001 -0.384 3
4.9229999 3.3599999 -0.31299999 1
3.8340001 2.5999999 -0.60799998 4
4.0089998 2.7119999 -0.55800003 4
4.204 2.8380001 -0.505 4
4.4229999 2.9820001 -0.447 2
4.6560001 3.1359999 -0.382 3
4.9229999 3.3150001 -0.31200001 1
3.835 2.566 -0.60600001 5
4.0120001 2.677 -0.55599999 4
4.204 2.799 -0.50300002 4
4.4200001 2.9389999 -0.44499999 4
4.6479998 3.0880001 -0.38 4
4.9060001 3.2590001 -0.31 1
3.839 2.5320001 -0.60399997 4
4.0089998 2.6370001 -0.55400002 4
4.21 2.7639999 -0.50199997 4
4.414 2.8940001 -0.44299999 4
4.6539998 3.049 -0.37900001 4
4.908 3.2149999 -0.30899999 3
3.8429999 2.5 -0.602 4
0 0 0 50
4.2119999 2.7260001 -0.5 3
4.414 2.8529999 -0.44100001 3
4.6469998 3.0020001 -0.37799999 3
4.9060001 3.168 -0.308 3
3.8429999 2.4630001 -0.60100001 4
4.0089998 2.562 -0.55000001 4
4.2069998 2.6830001 -0.498 4
4.4180002 2.8139999 -0.44 3
4.6479998 2.9579999 -0.377 3
4.9039998 3.1199999 -0.30700001 1
3.839 2.4230001 -0.59799999 4
4.0139999 2.527 -0.54900002 3
4.2030001 2.6400001 -0.49700001 4
4.4039998 2.7620001 -0.43799999 3
4.6420002 2.9089999 -0.37599999 3
4.8920002 3.0650001 -0.30599999 2
3.8410001 2.3870001 -0.597 4
4.0120001 2.487 -0.54799998 4
0 0 0 50
4.4109998 2.724 -0.43799999 3
4.6409998 2.8640001 -0.37599999 3
4.8899999 3.016 -0.30599999 3
3.8410001 2.349 -0.59500003 4
4.006 2.444 -0.546 4
4.1950002 2.553 -0.493 4
4.401 2.675 -0.43599999 4
4.6329999 2.813 -0.375 3
4.8790002 2.961 -0.30599999 4
3.839 2.3110001 -0.59299999 4
4.006 2.405 -0.54500002 3
4.197 2.5139999 -0.493 4
4.401 2.632 -0.43599999 3
4.6230001 2.7620001 -0.37400001 3
4.869 2.908 -0.30500001 4
3.832 2.2679999 -0.59100002 3
4.0050001 2.3640001 -0.54400003 4
4.1869998 2.4660001 -0.491 4
4.3990002 2.5869999 -0.43599999 4
4.6170001 2.7130001 -0.373 3
4.8610001 2.8540001 -0.30500001 3
0 0 0 50
4.007 2.325 -0.54299998 4
4.1880002 2.425 -0.491 4
4.3959999 2.5409999 -0.435 4
4.6090002 2.6619999 -0.373 5
4.8600001 2.8050001 -0.30599999 4
3.8299999 2.1900001 -0.58899999 4
4 2.2809999 -0.54100001 4
4.1820002 2.3800001 -0.49000001 4
4.3839998 2.4909999 -0.43399999 4
4.6030002 2.6129999 -0.373 4
4.8439999 2.7479999 -0.30599999 4
3.8269999 2.151 -0.588 4
3.9890001 2.2349999 -0.54000002 4
4.177 2.335 -0.48899999 4
4.3720002 2.4400001 -0.433 3
4.6009998 2.5650001 -0.373 4
4.835 2.694 -0.30599999 4
3.8210001 2.109 -0.58600003 4
3.993 2.197 -0.54000002 4
4.171 2.29 -0.48800001 5
4.3670001 2.3940001 -0.433 4
4.5910001 2.513 -0.373 3
4.8169999 2.635 -0.30599999 5
3.809 2.0639999 -0.58399999 7
3.987 2.154 -0.53899997 4
4.164 2.244 -0.48800001 4
4.3670001 2.3499999 -0.43399999 3
4.5819998 2.4619999 -0.37400001 4
4.809 2.582 -0.30700001 5
3.7980001 2.0190001 -0.58200002 5
3.9820001 2.1110001 -0.53799999 4
4.152 2.1960001 -0.48699999 11
0 0 0 50
4.5710001 2.4100001 -0.37400001 4
4.8060002 2.5320001 -0.308 5
3.816 1.9910001 -0.58399999 4
3.9760001 2.0680001 -0.53799999 4
4.1570001 2.1570001 -0.48800001 4
4.3449998 2.25 -0.433 4
4.5549998 2.355 -0.37400001 5
4.7909999 2.4749999 -0.30899999 5
3.7950001 1.942 -0.58099997 5
3.9719999 2.026 -0.537 4
4.1539998 2.1140001 -0.48800001 5
4.342 2.2049999 -0.43399999 5
4.5489998 2.3069999 -0.37400001 4
4.7800002 2.4219999 -0.31 5
3.7880001 1.9 -0.57999998 6
3.971 1.9859999 -0.53799999 4
4.1399999 2.0650001 -0.48699999 5
4.3280001 2.154 -0.433 4
4.5349998 2.2539999 -0.375 4
4.763 2.365 -0.31099999 5
3.7780001 1.857 -0.579 5
3.9460001 1.934 -0.53399998 5
4.1389999 2.023 -0.48800001 7
4.3179998 2.1070001 -0.433 5
4.5310001 2.207 -0.37599999 4
4.7529998 2.312 -0.31200001 5
3.7809999 1.821 -0.57999998 7
0 0 0 50
4.131 1.978 -0.48800001 4
4.3109999 2.0599999 -0.43399999 5
4.5190001 2.155 -0.37599999 5
4.7420001 2.2590001 -0.31299999 4
3.7690001 1.777 -0.57800001 5
3.9460001 1.855 -0.53600001 4
4.118 1.931 -0.48699999 4
4.3039999 2.013 -0.43399999 4
4.5089998 2.1059999 -0.377 4
4.7210002 2.2019999 -0.31400001 4
3.7639999 1.738 -0.57800001 5
3.9189999 1.804 -0.53299999 5
4.1059999 1.8839999 -0.48699999 4
4.2880001 1.9630001 -0.43399999 5
4.4899998 2.052 -0.377 4
4.7150002 2.152 -0.31600001 4
3.763 1.7 -0.57800001 5
3.924 1.767 -0.53399998 6
4.1059999 1.844 -0.48800001 4
4.2859998 1.92 -0.43599999 5
4.4809999 2.003 -0.37900001 4
4.6999998 2.098 -0.317 5
3.767 1.664 -0.57999998 6
3.9030001 1.7180001 -0.53299999 5
4.0939999 1.7970001 -0.48800001 4
4.2800002 1.874 -0.43599999 4
4.4759998 1.956 -0.38 4
0 0 0 50
3.747 1.618 -0.57700002 6
3.8929999 1.676 -0.53200001 6
4.0770001 1.75 -0.48699999 5
4.2680001 1.827 -0.43700001 4
4.4559999 1.904 -0.38 6
4.6739998 1.994 -0.31999999 5
3.7420001 1.58 -0.57700002 5
3.892 1.637 -0.53299999 5
4.0710001 1.707 -0.48800001 5
4.2659998 1.784 -0.43799999 4
4.448 1.857 -0.382 5
4.665 1.944 -0.322 4
3.734 1.54 -0.57700002 5
3.8859999 1.597 -0.53299999 5
4.0619998 1.664 -0.48800001 4
4.2509999 1.7359999 -0.43900001 4
4.4400001 1.809 -0.38299999 5
4.6479998 1.891 -0.32300001 4
3.7349999 1.503 -0.57800001 6
3.872 1.553 -0.53200001 5
4.0609999 1.623 -0.48899999 4
4.2420001 1.6900001 -0.43900001 4
4.4299998 1.762 -0.384 4
4.6370001 1.84 -0.32499999 5
3.7449999 1.471 -0.57999998 6
3.8699999 1.5140001 -0.53299999 6
0 0 0 50
4.2179999 1.6390001 -0.43900001 4
4.4120002 1.711 -0.38499999 5
4.6230001 1.789 -0.32699999 5
3.74 1.432 -0.58099997 6
3.8570001 1.471 -0.53299999 5
4.0310001 1.5319999 -0.48899999 6
4.211 1.596 -0.44 4
4.408 1.666 -0.38699999 4
4.6059999 1.737 -0.32800001 5
3.7309999 1.392 -0.57999998 6
3.852 1.432 -0.53399998 6
4.0180001 1.488 -0.48899999 6
4.1939998 1.549 -0.44 5
4.4000001 1.62 -0.38800001 4
4.5999999 1.6900001 -0.33000001 5
3.7079999 1.348 -0.57800001 5
3.846 1.393 -0.53399998 6
4.0089998 1.447 -0.48899999 6
4.1799998 1.503 -0.44 6
4.382 1.571 -0.389 5
4.5869999 1.641 -0.331 6
3.723 1.318 -0.58099997 6
3.836 1.352 -0.53399998 5
3.9909999 1.402 -0.48899999 4
4.1820002 1.464 -0.442 5
4.3629999 1.522 -0.389 6
4.5679998 1.59 -0.333 5
3.7190001 1.281 -0.58200002 7
3.846 1.319 -0.537 6
0 0 0 50
4.1729999 1.42 -0.44299999 7
4.3569999 1.478 -0.391 6
4.5599999 1.543 -0.33500001 5
3.7049999 1.2410001 -0.58099997 6
3.823 1.275 -0.53500003 5
3.9920001 1.326 -0.49200001 6
4.1609998 1.376 -0.44400001 7
4.349 1.434 -0.39300001 6
4.539 1.492 -0.336 6
3.688 1.2 -0.579 6
3.8239999 1.238 -0.53600001 6
3.97 1.28 -0.491 4
4.1490002 1.3329999 -0.44400001 4
4.3309999 1.387 -0.39300001 6
4.526 1.4450001 -0.33700001 5
3.698 1.168 -0.58200002 6
3.829 1.204 -0.53799999 6
3.974 1.244 -0.493 7
4.1389999 1.29 -0.44499999 6
4.323 1.3430001 -0.39500001 7
4.5159998 1.398 -0.33899999 5
3.691 1.131 -0.58200002 6
3.8069999 1.161 -0.537 6
3.9619999 1.2029999 -0.493 6
4.145 1.253 -0.44800001 8
0 0 0 50
4.5050001 1.352 -0.34 7
3.6819999 1.094 -0.58200002 6
3.8299999 1.132 -0.54100001 5
3.951 1.163 -0.493 5
4.1259999 1.209 -0.44800001 5
4.2969999 1.2539999 -0.396 5
4.4899998 1.306 -0.34200001 6
3.6789999 1.059 -0.58200002 5
3.7880001 1.085 -0.537 4
3.941 1.123 -0.49399999 5
4.1220002 1.169 -0.449 6
4.2919998 1.212 -0.398 5
4.4689999 1.257 -0.34200001 5
3.675 1.023 -0.583 5
3.7850001 1.048 -0.53799999 5
3.9319999 1.0829999 -0.49399999 5
4.1009998 1.125 -0.449 5
4.2870002 1.171 -0.40000001 6
4.473 1.216 -0.345 6
3.6630001 0.986 -0.58200002 5
3.8010001 1.018 -0.54100001 5
3.9419999 1.05 -0.49700001 6
4.092 1.084 -0.449 5
4.2729998 1.127 -0.40000001 6
4.4629998 1.1720001 -0.34599999 7
3.6630001 0.95200002 -0.583 5
3.7739999 0.97500002 -0.53899997 5
3.951 1.016 -0.5 6
4.085 1.045 -0.44999999 5
4.263 1.085 -0.40099999 6
4.2719998 1.0829999 -0.33399999 5
0 0 0 50
3.7679999 0.93900001 -0.53899997 4
3.9130001 0.96899998 -0.49599999 5
4.0819998 1.006 -0.45199999 5
4.2519999 1.043 -0.40200001 5
4.0089998 0.97799999 -0.315 21
3.655 0.88300002 -0.58399999 5
3.7850001 0.90799999 -0.54299998 5
3.9130001 0.93300003 -0.498 5
4.0689998 0.96600002 -0.45199999 5
0 0 0 0
3.99 0.93699998 -0.315 26
3.652 0.84899998 -0.58499998 5
3.777 0.87199998 -0.54299998 5
3.9000001 0.89499998 -0.49700001 5
4.0749998 0.93000001 -0.454 6
4.1090002 0.93300003 -0.39199999 7
3.9719999 0.89700001 -0.31600001 29
3.638 0.81300002 -0.58399999 5
3.7739999 0.83700001 -0.54400003 5
3.9159999 0.86299998 -0.50099999 6
4.0640001 0.89099997 -0.454 5
4.0749998 0.88800001 -0.38999999 8
3.9719999 0.86000001 -0.31799999 30
3.625 0.77700001 -0.583 4
3.77 0.80199999 -0.54400003 5
3.891 0.82300001 -0.49900001 5
4.0739999 0.85600001 -0.45699999 6
4.0640001 0.84899998 -0.391 9
3.974 0.82499999 -0.31900001 31
0 0 0 50
3.743 0.76300001 -0.542 4
3.908 0.79100001 -0.50199997 6
4.0539999 0.815 -0.456 6
4.0739999 0.81400001 -0.39399999 9
3.9779999 0.79000002 -0.32100001 32
3.625 0.71200001 -0.58499998 5
3.7490001 0.73100001 -0.54400003 6
3.8840001 0.75199997 -0.50099999 5
4.033 0.77499998 -0.45500001 5
4.0900002 0.78100002 -0.39700001 8
3.9849999 0.75599998 -0.324 32
3.6210001 0.68000001 -0.58499998 5
3.7460001 0.69700003 -0.54400003 5
3.8710001 0.71499997 -0.5 5
4.0450001 0.74199998 -0.458 6
4.177 0.75999999 -0.40700001 7
4.0009999 0.72299999 -0.32600001 25
3.6229999 0.648 -0.58600003 5
3.744 0.66399997 -0.54500002 5
3.852 0.67699999 -0.49900001 5
4.0229998 0.70200002 -0.45699999 5
4.1989999 0.727 -0.41 7
4.039 0.69400001 -0.331 20
0 0 0 50
3.733 0.62900001 -0.54400003 6
3.8670001 0.64600003 -0.50199997 5
4.007 0.66299999 -0.456 5
4.1700001 0.685 -0.40900001 5
4.1069999 0.66900003 -0.338 12
3.602 0.58099997 -0.58399999 5
3.727 0.59500003 -0.54400003 5
3.8770001 0.61299998 -0.50400001 6
3.9960001 0.62699997 -0.456 5
4.1550002 0.64600003 -0.40900001 5
4.2880001 0.66100001 -0.354 7
3.6010001 0.54900002 -0.58499998 5
3.7190001 0.56099999 -0.54400003 5
3.846 0.57499999 -0.50099999 5
4 0.59200001 -0.458 5
4.1529999 0.60900003 -0.41 5
4.3470001 0.63200003 -0.361 6
3.5969999 0.51700002 -0.58499998 5
3.701 0.52600002 -0.542 4
3.848 0.542 -0.50199997 5
3.9890001 0.55599999 -0.458 5
4.1799998 0.57599998 -0.41299999 6
4.3369999 0.59200001 -0.361 6
0 0 0 50
3.7030001 0.49399999 -0.54400003 4
3.8599999 0.50999999 -0.505 6
4.0079999 0.52399999 -0.461 6
4.1430001 0.53500003 -0.41100001 5
4.3130002 0.55199999 -0.36000001 7
3.5869999 0.45300001 -0.58499998 5
3.7 0.46200001 -0.54400003 5
3.822 0.472 -0.50099999 5
3.9749999 0.48500001 -0.458 5
4.1399999 0.49900001 -0.412 5
4.3099999 0.514 -0.361 7
3.5769999 0.421 -0.58399999 5
3.704 0.43099999 -0.54500002 5
3.8399999 0.44100001 -0.50400001 5
3.9590001 0.449 -0.45699999 5
4.1490002 0.465 -0.414 6
4.3060002 0.47600001 -0.36199999 6
3.582 0.391 -0.58600003 7
0 0 0 50
3.842 0.40799999 -0.505 5
3.98 0.417 -0.46000001 5
4.1240001 0.42699999 -0.412 5
4.2940001 0.43799999 -0.36199999 7
3.5799999 0.361 -0.58600003 4
3.6889999 0.366 -0.54500002 5
3.802 0.37099999 -0.50099999 4
3.944 0.38 -0.45699999 3
4.1279998 0.39199999 -0.414 6
4.2930002 0.40099999 -0.36300001 7
3.5680001 0.329 -0.58499998 5
3.665 0.33199999 -0.542 4
3.7920001 0.338 -0.5 4
3.9449999 0.34599999 -0.458 4
4.1030002 0.354 -0.412 5
4.2880001 0.36399999 -0.36399999 7
3.5639999 0.29800001 -0.58499998 5
0 0 0 50
3.8069999 0.30700001 -0.50300002 5
3.944 0.31200001 -0.45899999 5
4.1149998 0.31999999 -0.414 6
4.2849998 0.32699999 -0.36399999 7
3.5680001 0.26899999 -0.58600003 4
3.678 0.271 -0.54500002 4
3.8150001 0.27599999 -0.505 5
3.9389999 0.27900001 -0.45899999 5
4.0960002 0.28400001 -0.41299999 5
4.2800002 0.29100001 -0.36500001 7
3.5580001 0.23800001 -0.58499998 5
3.678 0.23999999 -0.546 4
3.812 0.243 -0.505 5
3.9460001 0.24600001 -0.46000001 5
4.079 0.248 -0.412 5
4.2709999 0.25400001 -0.36500001 7
3.549 0.207 -0.58399999 5
3.6489999 0.208 -0.542 4
3.796 0.20999999 -0.50300002 5
0 0 0 50
4.0799999 0.214 -0.41299999 6
4.2690001 0.21799999 -0.36500001 6
3.55 0.178 -0.58399999 4
3.6760001 0.178 -0.546 4
3.796 0.17900001 -0.50400001 5
3.9560001 0.18000001 -0.463 6
4.0749998 0.18000001 -0.41299999 5
4.2680001 0.182 -0.366 7
3.5480001 0.148 -0.58399999 4
3.6630001 0.147 -0.54500002 5
0 0 0 50
3.9330001 0.147 -0.46000001 5
4.0970001 0.147 -0.41600001 5
4.2540002 0.146 -0.36500001 7
3.54 0.118 -0.58399999 5
3.6440001 0.116 -0.542 4
3.786 0.115 -0.50400001 5
3.911 0.113 -0.458 5
4.0819998 0.112 -0.41499999 5
4.244 0.11 -0.36500001 7
3.5339999 0.089000002 -0.583 5
3.6570001 0.086000003 -0.54500002 5
3.7939999 0.083999999 -0.505 5
3.9389999 0.081 -0.46200001 6
4.0809999 0.078000002 -0.41499999 6
4.2480001 0.075000003 -0.366 7
3.5339999 0.059999999 -0.583 5
3.651 0.056000002 -0.54400003 4
0 0 0 50
3.9319999 0.048999999 -0.46200001 6
4.0749998 0.045000002 -0.41499999 6
4.2459998 0.039999999 -0.366 7
3.533 0.030999999 -0.58399999 5
3.654 0.026000001 -0.54500002 5
3.7839999 0.022 -0.505 5
3.928 0.017000001 -0.46200001 6
4.0710001 0.011 -0.41499999 5
4.2140002 0.0049999999 -0.36399999 5
3.53 0.0020000001 -0.58399999 5
3.6370001 -0.0020000001 -0.54299998 5
3.789 -0.0080000004 -0.50599998 6
3.915 -0.014 -0.461 5
4.0580001 -0.021 -0.414 5
4.237 -0.028999999 -0.366 7
3.5190001 -0.026000001 -0.58200002 5
0 0 0 50
3.747 -0.039000001 -0.5 4
3.9230001 -0.046999998 -0.46200001 6
4.0679998 -0.054000001 -0.41499999 6
4.224 -0.063000001 -0.366 7
3.5190001 -0.054000001 -0.583 5
3.641 -0.061999999 -0.54500002 5
3.773 -0.07 -0.50400001 5
3.9130001 -0.078000002 -0.461 6
4.0710001 -0.088 -0.41600001 7
4.2179999 -0.097000003 -0.366 8
3.5120001 -0.082999997 -0.58200002 6
3.635 -0.090999998 -0.54400003 5
3.773 -0.1 -0.505 5
3.9119999 -0.11 -0.46200001 6
4.0510001 -0.12 -0.41499999 6
4.2119999 -0.131 -0.36500001 8
3.5079999 -0.111 -0.58200002 5
3.6370001 -0.12 -0.54500002 5
0 0 0 50
3.908 -0.141 -0.46200001 6
4.053 -0.153 -0.41499999 7
4.2080002 -0.16500001 -0.366 8
3.5020001 -0.139 -0.58099997 6
3.6259999 -0.149 -0.54400003 5
3.7579999 -0.16 -0.50400001 6
3.9059999 -0.17299999 -0.46200001 6
4.0549998 -0.185 -0.41600001 7
4.2140002 -0.199 -0.366 8
3.503 -0.167 -0.58200002 5
3.6199999 -0.178 -0.54299998 5
3.763 -0.19 -0.505 6
3.8940001 -0.20299999 -0.461 7
4.0469999 -0.21699999 -0.41499999 7
4.1999998 -0.23199999 -0.366 8
3.5009999 -0.19499999 -0.58200002 6
3.6170001 -0.206 -0.54299998 5
3.753 -0.22 -0.50400001 6
0 0 0 50
4.0419998 -0.249 -0.41499999 7
4.198 -0.26499999 -0.366 8
3.4960001 -0.222 -0.58200002 6
3.6300001 -0.236 -0.546 5
3.753 -0.249 -0.50400001 6
3.888 -0.264 -0.461 6
4.0339999 -0.28 -0.41499999 6
4.198 -0.29800001 -0.366 8
3.49 -0.249 -0.58099997 6
3.612 -0.26300001 -0.54299998 5
3.7490001 -0.27900001 -0.50400001 6
3.8800001 -0.294 -0.461 7
4.039 -0.31200001 -0.41600001 7
4.1880002 -0.33000001 -0.366 8
3.49 -0.27599999 -0.58200002 5
3.6110001 -0.29100001 -0.54400003 5
3.7479999 -0.308 -0.505 6
0 0 0 50
4.0320001 -0.34299999 -0.41600001 7
4.1869998 -0.36300001 -0.366 8
3.4809999 -0.303 -0.58099997 5
3.5999999 -0.31799999 -0.54299998 5
3.734 -0.336 -0.50300002 5
3.8710001 -0.354 -0.46000001 6
4.0240002 -0.37400001 -0.41499999 7
4.1719999 -0.39399999 -0.36500001 8
3.4809999 -0.33000001 -0.58099997 5
3.5969999 -0.34599999 -0.54299998 5
3.734 -0.36399999 -0.50400001 6
3.8699999 -0.38299999 -0.461 7
4.0159998 -0.40400001 -0.41499999 7
4.1690001 -0.426 -0.366 8
3.483 -0.35699999 -0.58200002 5
3.5880001 -0.373 -0.542 5
3.7379999 -0.39399999 -0.505 5
3.862 -0.41299999 -0.461 7
4.0190001 -0.435 -0.41600001 7
4.1690001 -0.458 -0.366 8
3.4749999 -0.38299999 -0.58200002 5
3.5829999 -0.40000001 -0.542 5
3.7249999 -0.421 -0.50400001 6
3.8570001 -0.442 -0.461 7
0 0 0 50
4.1599998 -0.48899999 -0.366 8
3.46 -0.40799999 -0.57999998 5
3.586 -0.428 -0.54299998 5
3.7190001 -0.449 -0.50400001 5
3.8499999 -0.47099999 -0.461 7
4.0009999 -0.495 -0.41499999 8
4.1539998 -0.52100003 -0.366 8
3.467 -0.435 -0.58200002 5
3.586 -0.45500001 -0.54400003 6
3.7060001 -0.47600001 -0.50300002 6
3.846 -0.49900001 -0.461 6
4.0029998 -0.52600002 -0.41600001 7
4.1529999 -0.55199999 -0.36700001 8
3.4630001 -0.461 -0.58200002 6
3.566 -0.479 -0.542 5
3.7049999 -0.50300002 -0.50400001 6
3.8529999 -0.52899998 -0.46200001 7
4.0029998 -0.55500001 -0.417 7
4.1459999 -0.58200002 -0.36700001 8
3.4579999 -0.486 -0.58200002 5
3.5680001 -0.50599998 -0.54299998 5
3.7 -0.52999997 -0.50400001 6
0 0 0 50
4.0079999 -0.58600003 -0.419 6
4.1430001 -0.61299998 -0.368 8
3.45 -0.51099998 -0.58200002 6
3.5569999 -0.53200001 -0.54299998 5
3.7060001 -0.55900002 -0.50599998 6
3.839 -0.58399999 -0.463 7
3.983 -0.61199999 -0.417 7
4.1300001 -0.64099997 -0.36700001 8
3.448 -0.53600001 -0.583 5
3.5569999 -0.55800003 -0.54400003 5
3.6900001 -0.58399999 -0.505 6
3.8340001 -0.61199999 -0.463 7
3.9790001 -0.64099997 -0.41800001 7
4.1259999 -0.671 -0.368 9
3.447 -0.56099999 -0.58399999 5
3.556 -0.58399999 -0.54500002 6
3.675 -0.60799998 -0.50400001 10
3.822 -0.63800001 -0.463 8
3.9719999 -0.66900003 -0.41800001 7
4.125 -0.70099998 -0.36899999 8
3.4349999 -0.58499998 -0.583 6
3.5409999 -0.60699999 -0.54299998 6
3.6760001 -0.63499999 -0.505 7
3.8180001 -0.66500002 -0.46399999 7
3.9619999 -0.69599998 -0.41800001 7
4.1230001 -0.73000002 -0.37 8
0 0 0 50
3.5339999 -0.63099998 -0.54400003 6
3.674 -0.66100001 -0.50599998 7
3.813 -0.69099998 -0.46399999 7
3.9619999 -0.72399998 -0.419 7
4.1129999 -0.75800002 -0.37099999 9
3.418 -0.63099998 -0.583 7
3.5369999 -0.65700001 -0.546 6
3.6730001 -0.68699998 -0.50700003 7
3.806 -0.71700001 -0.465 7
3.9649999 -0.75300002 -0.421 7
4.0999999 -0.78500003 -0.37099999 9
3.4200001 -0.65600002 -0.58499998 6
3.5309999 -0.68099999 -0.546 6
3.6689999 -0.713 -0.50800002 7
3.8069999 -0.745 -0.46599999 7
3.948 -0.778 -0.421 8
4.098 -0.81300002 -0.37200001 9
3.4170001 -0.68000001 -0.58600003 6
3.5309999 -0.70599997 -0.54799998 6
3.6630001 -0.73699999 -0.509 7
3.7980001 -0.76899999 -0.46700001 6
3.941 -0.80400002 -0.42199999 7
4.0939999 -0.84100002 -0.373 8
3.4089999 -0.70200002 -0.58600003 6
3.5250001 -0.73000002 -0.54900002 6
3.6589999 -0.76200002 -0.50999999 7
3.7950001 -0.79500002 -0.46799999 7
3.9349999 -0.82999998 -0.42300001 7
4.085 -0.86699998 -0.37400001 8
3.4100001 -0.72600001 -0.588 6
3.5139999 -0.75199997 -0.54900002 5
3.655 -0.78600001 -0.51200002 7
3.7920001 -0.82099998 -0.47 7
3.924 -0.85399997 -0.42399999 8
4.079 -0.89399999 -0.37599999 9
3.401 -0.74699998 -0.58899999 6
3.5139999 -0.77600002 -0.551 5
0 0 0 50
3.7720001 -0.84200001 -0.46900001 7
3.927 -0.88099998 -0.426 8
4.0679998 -0.91900003 -0.377 8
3.395 -0.76899999 -0.58999997 6
3.5139999 -0.80000001 -0.55299997 6
3.6389999 -0.83200002 -0.514 7
3.776 -0.86799997 -0.472 6
3.9159999 -0.90499997 -0.42699999 7
4.0630002 -0.94499999 -0.37799999 9
3.3870001 -0.79000002 -0.58999997 6
3.5050001 -0.82099998 -0.55400002 6
3.628 -0.85299999 -0.514 6
3.7639999 -0.88999999 -0.47299999 6
3.9000001 -0.92699999 -0.428 8
4.0419998 -0.96600002 -0.37900001 9
3.381 -0.81099999 -0.59200001 7
3.497 -0.84200001 -0.55500001 6
0 0 0 50
3.7550001 -0.912 -0.47400001 7
3.911 -0.954 -0.43099999 6
4.04 -0.991 -0.38100001 9
3.372 -0.82999998 -0.59200001 6
3.4820001 -0.861 -0.55500001 5
3.6129999 -0.89600003 -0.51700002 6
3.7479999 -0.93400002 -0.47499999 7
3.891 -0.97500002 -0.43099999 7
4.0380001 -1.016 -0.38299999 8
3.3659999 -0.85100001 -0.59399998 5
3.4879999 -0.884 -0.55800003 7
3.615 -0.92000002 -0.51999998 7
3.7309999 -0.95300001 -0.47600001 6
3.881 -0.99599999 -0.433 7
4.033 -1.041 -0.38600001 8
3.3640001 -0.87099999 -0.59600002 5
3.4679999 -0.90100002 -0.55800003 6
3.6029999 -0.93900001 -0.52100003 6
3.734 -0.977 -0.479 7
3.878 -1.02 -0.435 7
4.0209999 -1.062 -0.38699999 8
3.349 -0.889 -0.59600002 6
3.464 -0.92199999 -0.56 6
3.5929999 -0.95899999 -0.52200001 6
3.723 -0.99800003 -0.48100001 6
3.8670001 -1.04 -0.43700001 7
4.0170002 -1.085 -0.38999999 8
3.348 -0.90899998 -0.59899998 7
3.457 -0.94099998 -0.56199998 7
3.5799999 -0.977 -0.523 6
3.7079999 -1.016 -0.48199999 8
3.858 -1.061 -0.43900001 7
4.0009999 -1.105 -0.391 8
3.345 -0.92799997 -0.602 6
0 0 0 50
3.5799999 -0.99800003 -0.52600002 6
3.704 -1.036 -0.484 7
3.839 -1.0779999 -0.44 8
3.9879999 -1.124 -0.39300001 8
3.3399999 -0.94700003 -0.60399997 6
3.4389999 -0.977 -0.565 6
3.5639999 -1.015 -0.52700001 7
3.694 -1.0549999 -0.486 7
3.836 -1.099 -0.44299999 8
3.984 -1.146 -0.396 8
3.3180001 -0.95999998 -0.60299999 7
3.4349999 -0.99599999 -0.56699997 6
3.5599999 -1.034 -0.52999997 6
3.687 -1.074 -0.48899999 7
3.8269999 -1.118 -0.44499999 7
3.97 -1.164 -0.398 9
3.3139999 -0.97799999 -0.60600001 6
3.421 -1.011 -0.56900001 6
3.543 -1.049 -0.53100002 7
3.6800001 -1.092 -0.491 7
0 0 0 50
3.964 -1.183 -0.40099999 8
3.3039999 -0.99299997 -0.60699999 5
3.4189999 -1.028 -0.57200003 6
3.543 -1.068 -0.53399998 7
3.6700001 -1.109 -0.493 6
3.802 -1.152 -0.44999999 7
3.9449999 -1.198 -0.403 8
3.2950001 -1.008 -0.60900003 5
3.4089999 -1.044 -0.574 6
3.5280001 -1.082 -0.53500003 6
3.6600001 -1.125 -0.49599999 7
3.7880001 -1.1670001 -0.45199999 7
3.9349999 -1.215 -0.40599999 8
3.2950001 -1.025 -0.61299998 6
3.401 -1.059 -0.57599998 6
3.527 -1.099 -0.53899997 6
3.6489999 -1.14 -0.498 6
3.7820001 -1.184 -0.45500001 7
3.9349999 -1.235 -0.41 9
3.28 -1.0369999 -0.61400002 5
3.398 -1.075 -0.579 6
3.517 -1.114 -0.54100001 6
3.635 -1.153 -0.5 7
0 0 0 50
3.9200001 -1.248 -0.41299999 8
3.2750001 -1.052 -0.61699998 6
3.388 -1.0880001 -0.58099997 6
3.4820001 -1.12 -0.54000002 5
3.6389999 -1.1720001 -0.505 7
3.7679999 -1.215 -0.46200001 7
3.898 -1.2589999 -0.41499999 8
3.2609999 -1.063 -0.61799997 5
3.375 -1.1 -0.583 6
3.484 -1.136 -0.54400003 6
3.6199999 -1.182 -0.50599998 6
3.7520001 -1.226 -0.46399999 7
3.895 -1.276 -0.419 9
3.2620001 -1.0779999 -0.62199998 6
3.3640001 -1.112 -0.58499998 6
3.4849999 -1.152 -0.54900002 5
3.6140001 -1.1950001 -0.50999999 7
3.7420001 -1.239 -0.46700001 7
3.881 -1.2869999 -0.421 8
3.2460001 -1.087 -0.62300003 6
0 0 0 50
3.457 -1.1569999 -0.54799998 5
3.596 -1.204 -0.51099998 6
3.734 -1.252 -0.47 7
3.875 -1.301 -0.42500001 8
3.2390001 -1.098 -0.62599999 6
3.3399999 -1.132 -0.58999997 6
3.4649999 -1.174 -0.55400002 6
3.5829999 -1.215 -0.514 6
3.724 -1.263 -0.47299999 7
3.8640001 -1.312 -0.42899999 8
3.227 -1.107 -0.62800002 6
3.3410001 -1.145 -0.59399998 6
3.454 -1.184 -0.55699998 5
3.5799999 -1.227 -0.51800001 7
3.711 -1.273 -0.47600001 7
3.855 -1.323 -0.43200001 8
3.2179999 -1.117 -0.63 5
3.3239999 -1.152 -0.59500003 6
3.4460001 -1.194 -0.56 6
3.5710001 -1.237 -0.52100003 7
3.7060001 -1.284 -0.47999999 7
3.8399999 -1.331 -0.435 8
3.211 -1.126 -0.63300002 6
3.319 -1.1619999 -0.59899998 5
0 0 0 50
3.549 -1.2410001 -0.52200001 6
3.6860001 -1.289 -0.48199999 7
3.8169999 -1.335 -0.43700001 8
3.2049999 -1.135 -0.63599998 6
3.302 -1.1670001 -0.60000002 5
3.415 -1.206 -0.56300002 5
3.5320001 -1.2460001 -0.52399999 6
3.6819999 -1.299 -0.486 7
3.8110001 -1.345 -0.44100001 8
3.1900001 -1.14 -0.63800001 5
3.289 -1.173 -0.602 5
3.425 -1.22 -0.56900001 6
3.5309999 -1.257 -0.52899998 7
3.6659999 -1.304 -0.48800001 7
3.806 -1.353 -0.44499999 8
3.178 -1.145 -0.639 6
3.2850001 -1.181 -0.60500002 6
3.405 -1.222 -0.56999999 6
3.527 -1.265 -0.53299999 7
3.6500001 -1.308 -0.491 6
3.7839999 -1.355 -0.44800001 8
3.168 -1.151 -0.64200002 6
3.2620001 -1.182 -0.60600001 5
3.3970001 -1.228 -0.574 6
0 0 0 50
3.6370001 -1.312 -0.49399999 6
3.783 -1.364 -0.45199999 8
3.164 -1.1569999 -0.64499998 7
3.257 -1.188 -0.60900003 5
3.3859999 -1.233 -0.57599998 6
3.4960001 -1.271 -0.537 6
3.6359999 -1.3200001 -0.498 7
3.7620001 -1.364 -0.454 8
3.1589999 -1.163 -0.64899999 6
3.257 -1.196 -0.61299998 5
3.372 -1.235 -0.57800001 6
3.487 -1.274 -0.54000002 6
3.6229999 -1.322 -0.50099999 7
3.7609999 -1.3710001 -0.45899999 8
3.1459999 -1.165 -0.64999998 6
3.2509999 -1.2 -0.616 6
3.3629999 -1.238 -0.58099997 6
3.4779999 -1.277 -0.54299998 6
3.612 -1.324 -0.50400001 7
3.7460001 -1.372 -0.46200001 8
3.1429999 -1.169 -0.65399998 6
3.2409999 -1.202 -0.61900002 6
3.3570001 -1.2410001 -0.58399999 6
3.471 -1.28 -0.546 7
3.598 -1.324 -0.50700003 7
3.74 -1.374 -0.465 9
3.1300001 -1.17 -0.65499997 6
3.234 -1.204 -0.62199998 6
0 0 0 50
3.467 -1.283 -0.55000001 6
3.5899999 -1.326 -0.50999999 7
3.7249999 -1.373 -0.46799999 8
3.1270001 -1.173 -0.65899998 5
3.227 -1.206 -0.625 5
3.319 -1.2359999 -0.58600003 5
3.45 -1.281 -0.551 6
3.5869999 -1.3279999 -0.514 7
3.711 -1.3710001 -0.47099999 8
3.112 -1.171 -0.66000003 6
3.22 -1.206 -0.62699997 5
3.3039999 -1.233 -0.58700001 5
3.444 -1.2819999 -0.55500001 6
3.5650001 -1.323 -0.51499999 7
3.7049999 -1.372 -0.47400001 8
3.1070001 -1.1720001 -0.662 6
3.2090001 -1.205 -0.62900001 6
3.309 -1.238 -0.59200001 5
3.4330001 -1.279 -0.55699998 6
3.5569999 -1.321 -0.51800001 6
3.697 -1.37 -0.477 8
3.1029999 -1.1720001 -0.66500002 6
3.201 -1.2029999 -0.63099998 6
3.319 -1.243 -0.59799999 6
3.4219999 -1.276 -0.55900002 7
3.552 -1.321 -0.52100003 6
3.687 -1.367 -0.47999999 8
3.0940001 -1.17 -0.667 6
3.1960001 -1.2029999 -0.634 6
3.3080001 -1.239 -0.60000002 6
3.4200001 -1.276 -0.56199998 7
3.54 -1.316 -0.523 6
3.677 -1.363 -0.48300001 8
3.0899999 -1.169 -0.67000002 6
3.1860001 -1.199 -0.63499999 6
3.302 -1.237 -0.602 6
3.405 -1.27 -0.56300002 6
3.539 -1.3150001 -0.52600002 7
0 0 0 50
3.0780001 -1.164 -0.67000002 6
3.174 -1.194 -0.63599998 6
3.2980001 -1.234 -0.60500002 7
3.4089999 -1.27 -0.56800002 6
3.5320001 -1.3099999 -0.52899998 7
3.664 -1.354 -0.48800001 8
3.0739999 -1.161 -0.67299998 6
3.1800001 -1.194 -0.63999999 6
3.296 -1.2309999 -0.60799998 6
3.401 -1.265 -0.56999999 6
3.527 -1.306 -0.53100002 7
3.665 -1.351 -0.49200001 8
3.0669999 -1.156 -0.67400002 6
3.1659999 -1.186 -0.64099997 6
3.2880001 -1.225 -0.60900003 6
3.3929999 -1.258 -0.57099998 7
3.517 -1.298 -0.53299999 7
3.648 -1.341 -0.493 8
3.0669999 -1.154 -0.67699999 6
3.1670001 -1.184 -0.64399999 6
3.2909999 -1.223 -0.61299998 6
3.3870001 -1.252 -0.57300001 7
3.5220001 -1.296 -0.537 7
3.6400001 -1.3329999 -0.495 8
3.062 -1.148 -0.67900002 6
3.1600001 -1.177 -0.64499998 6
0 0 0 50
3.3770001 -1.244 -0.574 7
3.5090001 -1.285 -0.53799999 7
3.6370001 -1.326 -0.49700001 8
3.0550001 -1.141 -0.68000001 6
3.1489999 -1.168 -0.64600003 6
3.2679999 -1.205 -0.61400002 6
3.381 -1.239 -0.57800001 7
3.4979999 -1.276 -0.53899997 7
3.6270001 -1.316 -0.498 8
3.0580001 -1.137 -0.68300003 5
3.1530001 -1.164 -0.64899999 6
3.2690001 -1.199 -0.616 6
3.372 -1.229 -0.57800001 6
3.4979999 -1.2690001 -0.54100001 7
3.631 -1.3099999 -0.50099999 7
3.049 -1.128 -0.68300003 5
3.141 -1.153 -0.648 6
3.2639999 -1.191 -0.61799997 6
3.365 -1.22 -0.579 6
3.4949999 -1.2589999 -0.54299998 7
0 0 0 50
3.046 -1.12 -0.68400002 5
3.1389999 -1.146 -0.64999998 6
3.2650001 -1.184 -0.62 6
3.3629999 -1.211 -0.58099997 6
3.49 -1.249 -0.54400003 7
3.6099999 -1.285 -0.50300002 8
3.0380001 -1.11 -0.68400002 6
3.1359999 -1.137 -0.65100002 6
3.2650001 -1.175 -0.62199998 6
3.365 -1.2029999 -0.583 6
3.4909999 -1.24 -0.546 7
3.6070001 -1.274 -0.50400001 10
3.0409999 -1.103 -0.68599999 6
3.1370001 -1.1289999 -0.653 6
3.257 -1.163 -0.62199998 6
3.362 -1.192 -0.58399999 6
3.49 -1.229 -0.54799998 7
0 0 0 50
3.036 -1.092 -0.68599999 6
3.1400001 -1.12 -0.65499997 5
3.243 -1.149 -0.62 6
3.352 -1.179 -0.58399999 6
3.483 -1.216 -0.54799998 6
3.5969999 -1.248 -0.50599998 8
3.039 -1.084 -0.68800002 7
3.1300001 -1.107 -0.65399998 5
3.247 -1.1390001 -0.62300003 6
3.355 -1.168 -0.58600003 6
3.48 -1.204 -0.54900002 6
3.6040001 -1.238 -0.509 8
3.0320001 -1.071 -0.68800002 6
3.1329999 -1.098 -0.65600002 6
3.256 -1.131 -0.625 6
3.362 -1.159 -0.588 6
3.4779999 -1.191 -0.55000001 7
3.602 -1.225 -0.509 8
3.0350001 -1.061 -0.68900001 5
3.1440001 -1.09 -0.65899998 6
3.24 -1.114 -0.62300003 7
3.365 -1.148 -0.58899999 7
3.4779999 -1.177 -0.55000001 7
3.5940001 -1.2079999 -0.509 8
3.0350001 -1.05 -0.69 6
0 0 0 50
3.24 -1.101 -0.62300003 7
3.3559999 -1.132 -0.588 6
3.477 -1.163 -0.551 6
3.5969999 -1.1950001 -0.50999999 9
3.027 -1.035 -0.68800002 7
3.138 -1.064 -0.65899998 6
3.2490001 -1.091 -0.62599999 6
3.358 -1.119 -0.58899999 6
3.4890001 -1.153 -0.55299997 7
3.6010001 -1.181 -0.51099998 9
3.0409999 -1.027 -0.69199997 6
3.135 -1.049 -0.65799999 6
3.2479999 -1.077 -0.625 6
3.362 -1.1059999 -0.58999997 6
3.4779999 -1.1339999 -0.55199999 6
3.6099999 -1.169 -0.51300001 7
3.0350001 -1.012 -0.69 5
3.1370001 -1.036 -0.65799999 6
3.257 -1.066 -0.62699997 6
3.372 -1.094 -0.59200001 6
3.4779999 -1.119 -0.55199999 6
3.6029999 -1.15 -0.51200002 8
3.0420001 -1.001 -0.69199997 6
0 0 0 50
3.2390001 -1.045 -0.62300003 5
3.3699999 -1.0779999 -0.59100002 6
3.487 -1.1059999 -0.55299997 7
3.612 -1.136 -0.51300001 9
3.0420001 -0.98699999 -0.69099998 6
3.1429999 -1.0089999 -0.65899998 5
3.2219999 -1.024 -0.62 5
3.3670001 -1.061 -0.58999997 6
3.4879999 -1.089 -0.55299997 7
3.6129999 -1.118 -0.51300001 7
3.0350001 -0.96899998 -0.68900001 9
3.141 -0.99299997 -0.65799999 6
3.253 -1.018 -0.625 6
3.368 -1.044 -0.58999997 7
3.4949999 -1.074 -0.55299997 7
3.6199999 -1.102 -0.51300001 9
3.043 -0.95599997 -0.69 8
3.1489999 -0.97899997 -0.65899998 5
3.2679999 -1.006 -0.62699997 6
3.372 -1.028 -0.58999997 6
3.494 -1.0549999 -0.55199999 8
3.6229999 -1.085 -0.51300001 9
3.049 -0.94300002 -0.69 7
3.145 -0.96200001 -0.65700001 6
3.2609999 -0.98699999 -0.625 6
3.3829999 -1.0140001 -0.59100002 6
3.5039999 -1.04 -0.55299997 7
3.6199999 -1.0650001 -0.51099998 11
3.0569999 -0.92799997 -0.69099998 5
3.1559999 -0.94800001 -0.65799999 6
3.273 -0.97299999 -0.62599999 5
3.3859999 -0.99599999 -0.58999997 7
3.4990001 -1.02 -0.551 7
3.6259999 -1.0470001 -0.51099998 7
3.0599999 -0.91299999 -0.69 7
3.148 -0.92799997 -0.65499997 7
3.266 -0.95300001 -0.62300003 6
3.388 -0.97799999 -0.58899999 6
3.5039999 -1.001 -0.551 7
3.6289999 -1.027 -0.50999999 10
0 0 0 50
3.1659999 -0.91600001 -0.65799999 5
3.2579999 -0.93199998 -0.62099999 5
3.381 -0.95700002 -0.58700001 6
3.5109999 -0.98400003 -0.55000001 7
3.6389999 -1.01 -0.50999999 8
3.069 -0.88 -0.68900001 6
3.1619999 -0.89600003 -0.65499997 6
3.277 -0.91799998 -0.62300003 6
3.391 -0.94 -0.58700001 6
3.51 -0.963 -0.54900002 7
3.645 -0.99000001 -0.50999999 8
3.0710001 -0.86299998 -0.68800002 11
3.165 -0.87900001 -0.65399998 6
3.293 -0.90399998 -0.62400001 5
3.398 -0.92199999 -0.58600003 6
3.5190001 -0.94499999 -0.54799998 6
3.6470001 -0.96899998 -0.50800002 9
3.0780001 -0.84600002 -0.68800002 7
3.1700001 -0.861 -0.653 6
3.2579999 -0.875 -0.616 4
3.404 -0.90399998 -0.58600003 6
3.5239999 -0.92500001 -0.54699999 8
3.6559999 -0.94999999 -0.50800002 8
3.085 -0.829 -0.68699998 7
3.171 -0.84200001 -0.65200001 7
3.302 -0.866 -0.62199998 6
3.4100001 -0.88499999 -0.58499998 6
3.5309999 -0.90600002 -0.54699999 7
3.6600001 -0.92900002 -0.50599998 9
3.086 -0.81 -0.685 6
3.188 -0.82700002 -0.653 5
3.299 -0.84500003 -0.61900002 6
3.421 -0.866 -0.58499998 6
3.5350001 -0.88499999 -0.54500002 7
3.6689999 -0.90799999 -0.50599998 9
3.0899999 -0.792 -0.68400002 6
3.1930001 -0.80800003 -0.65200001 6
3.3050001 -0.82599998 -0.61799997 6
3.4230001 -0.84500003 -0.583 6
3.543 -0.86500001 -0.54400003 7
3.674 -0.88700002 -0.50400001 8
3.0940001 -0.773 -0.68300003 7
3.197 -0.78799999 -0.64999998 6
3.3150001 -0.80699998 -0.61799997 6
3.4260001 -0.824 -0.58099997 6
0 0 0 50
3.6889999 -0.866 -0.50400001 9
3.1010001 -0.75400001 -0.68199998 6
3.2060001 -0.76999998 -0.64999998 6
3.313 -0.78500003 -0.61500001 6
3.438 -0.80400002 -0.58099997 6
3.5539999 -0.82099998 -0.54100001 8
3.691 -0.84299999 -0.50199997 7
3.1129999 -0.73699999 -0.68199998 6
3.2219999 -0.75199997 -0.65100002 5
3.3269999 -0.76599997 -0.61500001 6
3.444 -0.78299999 -0.579 6
3.5669999 -0.801 -0.54100001 7
3.6949999 -0.81999999 -0.5 7
3.115 -0.71600002 -0.68000001 6
3.2160001 -0.72899997 -0.64700001 6
3.309 -0.74000001 -0.61000001 5
3.447 -0.76099998 -0.57700002 6
3.582 -0.78100002 -0.54100001 7
3.707 -0.79799998 -0.49900001 8
3.1240001 -0.69700003 -0.67900002 7
3.2260001 -0.70899999 -0.64600003 6
3.3399999 -0.72500002 -0.61199999 6
3.4549999 -0.74000001 -0.57599998 6
3.5810001 -0.75599998 -0.53799999 7
3.711 -0.77399999 -0.49700001 9
3.1289999 -0.67699999 -0.67799997 8
3.2349999 -0.69 -0.64499998 6
3.352 -0.704 -0.61199999 6
3.4719999 -0.72000003 -0.57599998 6
3.585 -0.73299998 -0.53600001 8
3.7260001 -0.75199997 -0.49599999 9
3.142 -0.65799999 -0.67699999 7
3.247 -0.67000002 -0.64499998 6
3.3640001 -0.68400002 -0.611 5
3.4749999 -0.69599998 -0.574 6
3.605 -0.71200001 -0.53600001 6
3.7260001 -0.727 -0.49399999 11
3.1400001 -0.63499999 -0.67500001 8
3.2390001 -0.64499998 -0.64099997 6
3.3570001 -0.65899998 -0.60799998 6
3.4790001 -0.67299998 -0.57200003 7
3.6070001 -0.68800002 -0.53399998 6
3.733 -0.70200002 -0.49200001 8
3.152 -0.61500001 -0.67400002 6
3.2539999 -0.625 -0.64099997 6
3.3659999 -0.63700002 -0.60600001 6
0 0 0 50
3.618 -0.66500002 -0.53299999 6
3.7490001 -0.67900002 -0.491 10
3.161 -0.59399998 -0.67299998 7
3.2579999 -0.60299999 -0.639 6
3.381 -0.616 -0.60600001 6
3.5020001 -0.62800002 -0.56999999 5
3.6210001 -0.63999999 -0.52999997 7
3.7579999 -0.65399998 -0.49000001 7
3.161 -0.57200003 -0.67000002 9
3.276 -0.583 -0.639 5
3.3829999 -0.59200001 -0.60399997 5
3.507 -0.60399997 -0.56800002 6
3.6359999 -0.61699998 -0.52999997 6
3.767 -0.62900001 -0.48800001 7
3.178 -0.55199999 -0.671 6
3.2739999 -0.55900002 -0.63599998 6
3.3929999 -0.56900001 -0.60299999 6
3.507 -0.579 -0.565 5
3.6440001 -0.59200001 -0.528 6
3.767 -0.602 -0.48500001 8
3.1760001 -0.528 -0.66799998 6
3.279 -0.53600001 -0.634 6
3.4059999 -0.54699999 -0.602 6
3.5209999 -0.55599999 -0.565 5
3.6489999 -0.56699997 -0.52600002 6
3.777 -0.57700002 -0.484 6
3.1919999 -0.50700003 -0.66799998 6
3.293 -0.514 -0.634 5
0 0 0 50
3.536 -0.53299999 -0.56400001 6
3.6619999 -0.542 -0.52499998 6
3.789 -0.55199999 -0.48199999 6
3.188 -0.48300001 -0.66500002 8
3.302 -0.491 -0.63300002 5
3.4130001 -0.498 -0.59799999 6
3.5320001 -0.50599998 -0.56099999 5
3.6700001 -0.51700002 -0.523 6
3.793 -0.52499998 -0.47999999 7
3.207 -0.46200001 -0.66600001 5
3.3099999 -0.46700001 -0.63200003 5
3.434 -0.47600001 -0.59899998 5
3.5539999 -0.48300001 -0.56099999 6
3.6760001 -0.491 -0.52100003 6
3.809 -0.49900001 -0.479 7
3.2030001 -0.43700001 -0.662 11
3.312 -0.44299999 -0.62900001 8
3.4300001 -0.44999999 -0.59500003 6
3.5569999 -0.458 -0.55900002 6
3.684 -0.465 -0.51999998 6
3.8169999 -0.472 -0.47799999 7
3.217 -0.41499999 -0.662 6
3.3210001 -0.419 -0.62800002 6
3.4419999 -0.426 -0.59399998 6
3.5669999 -0.43200001 -0.55800003 6
3.6860001 -0.43799999 -0.51700002 6
3.816 -0.44400001 -0.47499999 7
3.227 -0.391 -0.66100001 5
3.323 -0.39399999 -0.62599999 9
3.4549999 -0.40099999 -0.59399998 5
3.5699999 -0.40599999 -0.55599999 6
3.7079999 -0.412 -0.51800001 6
3.8410001 -0.41800001 -0.47499999 9
3.234 -0.368 -0.66000003 7
3.3369999 -0.37099999 -0.62599999 5
3.4649999 -0.377 -0.59299999 6
3.589 -0.38100001 -0.55599999 6
3.714 -0.38600001 -0.51599997 7
3.848 -0.391 -0.47299999 7
3.244 -0.34400001 -0.66000003 6
3.3440001 -0.34599999 -0.625 6
0 0 0 50
3.5880001 -0.354 -0.55299997 6
3.721 -0.35800001 -0.514 6
3.859 -0.36300001 -0.472 7
3.2420001 -0.31900001 -0.65700001 9
3.3570001 -0.322 -0.62400001 5
3.483 -0.32600001 -0.59100002 5
3.589 -0.32699999 -0.551 5
3.717 -0.33000001 -0.51099998 5
3.8570001 -0.33399999 -0.46900001 7
3.253 -0.29499999 -0.65600002 6
3.359 -0.296 -0.62199998 5
3.4860001 -0.29899999 -0.58899999 6
3.599 -0.301 -0.55000001 6
3.737 -0.30399999 -0.51200002 7
3.8759999 -0.30599999 -0.46900001 7
3.263 -0.27000001 -0.65600002 6
3.368 -0.271 -0.62199998 5
3.4879999 -0.273 -0.58700001 6
3.608 -0.27399999 -0.54900002 6
3.737 -0.27500001 -0.509 6
3.878 -0.27700001 -0.46700001 7
3.2579999 -0.244 -0.65200001 7
3.3800001 -0.24600001 -0.62199998 5
3.4990001 -0.24600001 -0.58700001 6
3.6110001 -0.24600001 -0.54699999 5
3.7479999 -0.24699999 -0.50800002 6
3.8889999 -0.248 -0.46599999 7
3.27 -0.22 -0.653 7
3.385 -0.22 -0.62 5
3.506 -0.22 -0.58600003 6
3.625 -0.219 -0.54699999 6
3.7590001 -0.219 -0.50800002 6
3.8989999 -0.219 -0.465 7
3.283 -0.19499999 -0.653 6
3.382 -0.193 -0.61799997 7
3.5139999 -0.193 -0.58499998 6
3.6199999 -0.191 -0.54400003 5
3.7690001 -0.191 -0.50700003 7
3.914 -0.19 -0.465 6
3.286 -0.169 -0.65200001 6
3.3959999 -0.167 -0.61799997 5
3.529 -0.16599999 -0.58499998 6
3.651 -0.164 -0.54699999 6
3.777 -0.162 -0.50599998 5
3.911 -0.16 -0.463 6
3.293 -0.14399999 -0.65100002 5
3.401 -0.141 -0.61699998 5
3.533 -0.139 -0.58399999 5
3.648 -0.13600001 -0.54500002 5
3.7880001 -0.133 -0.50599998 5
3.921 -0.13 -0.46200001 6
3.299 -0.117 -0.64999998 5
3.415 -0.114 -0.61799997 5
3.5339999 -0.111 -0.58200002 5
3.6559999 -0.107 -0.54400003 5
3.79 -0.103 -0.50400001 5
3.928 -0.098999999 -0.461 6
3.3039999 -0.090999998 -0.64999998 5
3.4189999 -0.086999997 -0.61699998 5
3.5309999 -0.082999997 -0.57999998 6
3.6719999 -0.079000004 -0.54500002 6
3.7980001 -0.074000001 -0.50400001 5
3.9300001 -0.068999998 -0.45899999 7
3.312 -0.064999998 -0.64999998 6
3.4219999 -0.059999999 -0.616 5
0 0 0 50
3.6630001 -0.050000001 -0.542 5
3.8 -0.044 -0.50199997 5
3.9530001 -0.039000001 -0.461 6
3.3180001 -0.037999999 -0.64899999 6
3.4219999 -0.033 -0.61400002 5
3.549 -0.027000001 -0.57999998 5
3.6700001 -0.021 -0.54100001 5
3.803 -0.015 -0.50099999 6
3.957 -0.0080000004 -0.46000001 6
3.3210001 -0.012 -0.64899999 6
3.4319999 -0.0060000001 -0.61500001 5
3.559 0 -0.57999998 5
3.6849999 0.0070000002 -0.542 5
3.8180001 0.014 -0.50199997 6
3.957 0.022 -0.458 7
3.326 0.014 -0.648 5
3.438 0.021 -0.61500001 5
3.5680001 0.028000001 -0.58099997 5
3.691 0.035999998 -0.542 6
3.819 0.044 -0.50099999 6
3.9530001 0.052999999 -0.45699999 7
3.336 0.041000001 -0.64899999 5
3.441 0.048 -0.61400002 5
3.5710001 0.057 -0.57999998 5
3.6900001 0.064999998 -0.54100001 5
3.829 0.075000003 -0.50099999 5
3.971 0.083999999 -0.458 6
3.335 0.068000004 -0.648 5
3.45 0.077 -0.61500001 5
3.572 0.086000003 -0.579 5
3.7 0.094999999 -0.54100001 5
3.819 0.105 -0.49900001 4
3.9760001 0.116 -0.45699999 6
3.346 0.096000001 -0.64899999 5
3.4530001 0.105 -0.61400002 5
3.5780001 0.114 -0.579 5
3.7130001 0.125 -0.542 5
3.846 0.13600001 -0.50199997 5
3.9820001 0.148 -0.45699999 6
3.3469999 0.123 -0.64899999 6
3.454 0.133 -0.61400002 5
3.586 0.14399999 -0.57999998 5
3.7 0.155 -0.54000002 5
0 0 0 50
3.9879999 0.18000001 -0.45699999 6
3.348 0.15000001 -0.64899999 6
3.4630001 0.161 -0.61500001 5
3.5810001 0.17299999 -0.579 6
3.6989999 0.184 -0.53899997 5
3.8510001 0.198 -0.50099999 5
3.9990001 0.213 -0.458 6
3.3499999 0.178 -0.64899999 5
3.4590001 0.189 -0.61400002 5
3.5869999 0.20200001 -0.579 5
3.7090001 0.215 -0.54000002 5
3.8540001 0.229 -0.50099999 6
4.0029998 0.245 -0.458 6
3.352 0.206 -0.64899999 5
3.4679999 0.21799999 -0.61500001 5
3.5929999 0.23199999 -0.57999998 5
3.727 0.24600001 -0.54299998 5
3.8559999 0.26100001 -0.50099999 5
3.9990001 0.27599999 -0.45699999 7
3.3559999 0.234 -0.64999998 5
3.4649999 0.24600001 -0.61500001 5
3.596 0.26100001 -0.58099997 5
3.697 0.27399999 -0.53799999 4
3.858 0.292 -0.50099999 5
4.007 0.30899999 -0.458 6
3.365 0.26199999 -0.65100002 5
3.4719999 0.27599999 -0.616 5
3.563 0.28799999 -0.57499999 4
3.7179999 0.30599999 -0.542 5
3.865 0.324 -0.50199997 5
3.99 0.34 -0.456 5
3.365 0.29100001 -0.65200001 5
3.48 0.30500001 -0.61799997 5
3.599 0.32100001 -0.58099997 5
3.737 0.338 -0.54500002 5
3.868 0.35600001 -0.50300002 5
4.0149999 0.375 -0.46000001 6
3.3640001 0.31900001 -0.65200001 5
3.4690001 0.333 -0.616 5
3.5940001 0.34999999 -0.58099997 5
3.7279999 0.368 -0.54400003 5
3.872 0.38800001 -0.50400001 5
4.0219998 0.40799999 -0.461 6
3.3670001 0.347 -0.653 5
3.4779999 0.36300001 -0.61900002 5
3.6040001 0.38100001 -0.583 5
3.7360001 0.40000001 -0.54500002 6
3.8659999 0.419 -0.50400001 6
4.0149999 0.44100001 -0.461 6
3.3659999 0.375 -0.65399998 5
3.4860001 0.39300001 -0.62099999 5
3.602 0.41100001 -0.58399999 5
3.7290001 0.43000001 -0.54500002 5
3.8710001 0.45100001 -0.505 6
4.0149999 0.47400001 -0.461 6
3.3640001 0.403 -0.65399998 6
3.4809999 0.42199999 -0.62099999 5
3.5810001 0.43799999 -0.58099997 5
3.734 0.46200001 -0.54699999 6
3.8710001 0.48300001 -0.50599998 5
0 0 0 50
3.3629999 0.43200001 -0.65499997 5
3.4719999 0.44999999 -0.62 5
3.6070001 0.47099999 -0.58600003 5
3.7290001 0.49200001 -0.54699999 5
3.8759999 0.51599997 -0.50800002 6
4.0180001 0.54000002 -0.46399999 6
3.368 0.461 -0.65700001 4
3.48 0.47999999 -0.62300003 5
3.605 0.50099999 -0.58700001 5
3.73 0.523 -0.54900002 5
3.878 0.54799998 -0.509 5
4.0250001 0.574 -0.46599999 6
3.368 0.49000001 -0.65899998 7
3.4809999 0.50999999 -0.62400001 5
3.5869999 0.52899998 -0.58600003 5
3.71 0.551 -0.54699999 4
3.875 0.58099997 -0.50999999 5
4.0289998 0.60799998 -0.46700001 7
3.3670001 0.51800001 -0.66000003 5
3.4660001 0.537 -0.62300003 5
3.6010001 0.56199998 -0.58999997 5
3.7260001 0.58499998 -0.551 5
3.8710001 0.61199999 -0.51099998 6
4.0279999 0.64099997 -0.46900001 6
3.3570001 0.546 -0.66000003 7
3.473 0.56699997 -0.62599999 5
3.6029999 0.59200001 -0.59200001 6
3.7290001 0.61699998 -0.55299997 5
3.882 0.64600003 -0.514 6
4.0250001 0.67400002 -0.47 7
3.368 0.57599998 -0.66399997 5
3.48 0.59799999 -0.62900001 5
3.5880001 0.62 -0.59100002 5
3.7030001 0.64300001 -0.551 4
0 0 0 50
4.0250001 0.708 -0.472 6
3.3559999 0.60299999 -0.66299999 5
3.4790001 0.62800002 -0.63099998 5
3.5880001 0.65100002 -0.59299999 5
3.721 0.67799997 -0.55599999 5
3.878 0.71100003 -0.51800001 6
4.0170002 0.74000001 -0.47299999 6
3.368 0.634 -0.66799998 5
3.473 0.65600002 -0.63200003 5
3.586 0.68099999 -0.59500003 5
3.7320001 0.71200001 -0.55900002 6
3.8840001 0.74400002 -0.51999998 6
4.0289998 0.77600002 -0.47600001 6
3.358 0.66100001 -0.66799998 5
3.467 0.685 -0.634 5
3.596 0.71399999 -0.59899998 5
3.723 0.74199998 -0.56 5
3.865 0.773 -0.51999998 5
4.0219998 0.80900002 -0.47799999 6
3.3559999 0.69 -0.671 5
3.4679999 0.71499997 -0.63599998 5
3.5929999 0.74400002 -0.60100001 5
3.714 0.77100003 -0.56099999 5
3.849 0.80299997 -0.51999998 5
4.0120001 0.83999997 -0.479 7
3.345 0.71700001 -0.671 5
3.4579999 0.74299997 -0.63700002 5
3.598 0.77600002 -0.60399997 5
3.723 0.80500001 -0.565 6
3.8699999 0.83999997 -0.52600002 6
4.013 0.875 -0.48199999 6
3.3440001 0.74599999 -0.67400002 6
3.4590001 0.77399999 -0.63999999 5
3.5699999 0.801 -0.602 5
3.724 0.838 -0.56800002 6
3.839 0.866 -0.52399999 5
4.0040002 0.90700001 -0.48300001 6
3.3440001 0.77600002 -0.67699999 5
3.454 0.80199999 -0.64200002 5
3.5880001 0.83499998 -0.60799998 5
3.6930001 0.86199999 -0.56599998 5
3.8440001 0.89999998 -0.528 5
3.9909999 0.93800002 -0.48500001 5
3.3340001 0.80199999 -0.67799997 6
3.454 0.833 -0.64499998 6
3.5810001 0.86500001 -0.61000001 5
0 0 0 50
3.8610001 0.93699998 -0.53299999 6
3.9990001 0.97399998 -0.48800001 6
3.3299999 0.83099997 -0.68000001 7
3.451 0.86199999 -0.64700001 5
3.5610001 0.89099997 -0.61000001 5
3.7090001 0.93000001 -0.57499999 5
3.845 0.96600002 -0.53399998 6
4 1.008 -0.49200001 7
3.3340001 0.86199999 -0.68400002 6
3.448 0.89200002 -0.64999998 6
3.563 0.92299998 -0.61299998 6
3.688 0.95700002 -0.57499999 6
3.8469999 1 -0.53799999 7
4.0019999 1.043 -0.495 7
3.325 0.889 -0.68599999 8
3.4389999 0.92000002 -0.65200001 6
3.5409999 0.94800001 -0.61299998 5
3.671 0.98400003 -0.57599998 5
3.8050001 1.022 -0.53500003 5
3.9660001 1.067 -0.49399999 6
3.3280001 0.91900003 -0.69 7
3.434 0.949 -0.65499997 6
3.5669999 0.986 -0.62099999 7
3.6960001 1.023 -0.583 7
3.8110001 1.057 -0.53899997 6
3.974 1.104 -0.498 6
3.3169999 0.94599998 -0.69199997 6
3.4319999 0.97899997 -0.65799999 6
3.556 1.015 -0.62300003 7
3.6930001 1.0549999 -0.58600003 7
3.803 1.0880001 -0.542 5
3.9549999 1.133 -0.5 6
3.3139999 0.97500002 -0.69499999 6
3.4260001 1.007 -0.66100001 7
3.5539999 1.046 -0.62599999 6
3.6849999 1.085 -0.58899999 6
3.8280001 1.128 -0.54900002 7
3.9449999 1.164 -0.50199997 5
3.3050001 1.002 -0.69700003 6
0 0 0 50
3.539 1.072 -0.62699997 6
3.6760001 1.115 -0.59100002 6
3.812 1.1569999 -0.55000001 6
3.9430001 1.198 -0.505 6
3.3080001 1.0319999 -0.70200002 7
3.4159999 1.066 -0.667 6
