# .PCD v0.7 - Point Cloud Data file format
VERSION 0.7
FIELDS x y z intensity
SIZE 4 4 4 4
TYPE F F F F
COUNT 1 1 1 1
WIDTH 1863
HEIGHT 1
VIEWPOINT 0 0 0 1 0 0 0
POINTS 1863
DATA ascii
7.3249998 -0.87400001 0.72500002 85
7.2870002 -0.87800002 0.83700001 84
7.5539999 -0.92000002 0.98900002 7
10.097 -1.243 1.485 1
6.9790001 -0.87400001 0.47099999 3
7.3499999 -0.92799997 0.61199999 12
7.3299999 -0.93400002 0.72600001 81
0 0 0 50
9.198 -1.196 1.206 2
10.082 -1.326 1.484 1
6.822 -0.90899998 0.46200001 1
7.2750001 -0.97799999 0.60699999 1
7.8169999 -1.061 0.77600002 1
8.4399996 -1.1569999 0.972 2
9.2030001 -1.274 1.2079999 1
10.066 -1.408 1.484 1
6.8109999 -0.963 0.46200001 3
7.2649999 -1.036 0.60699999 1
7.802 -1.123 0.77600002 1
8.4569998 -1.229 0.97600001 2
9.1929998 -1.349 1.209 2
10.076 -1.494 1.488 1
0 0 0 50
7.263 -1.096 0.60900003 1
7.8000002 -1.188 0.778 1
8.4329996 -1.296 0.97600001 2
9.1920004 -1.426 1.211 2
10.064 -1.577 1.49 1
6.7979999 -1.074 0.46399999 3
7.2589998 -1.156 0.61000001 2
7.8010001 -1.253 0.77999997 2
8.441 -1.368 0.97899997 2
9.1809998 -1.501 1.2130001 2
10.09 -1.6670001 1.497 1
6.7940001 -1.13 0.465 2
0 0 0 50
7.8080001 -1.319 0.78299999 2
8.4379997 -1.439 0.98100001 2
9.177 -1.579 1.216 2
10.067 -1.749 1.498 1
6.796 -1.186 0.46700001 1
7.2459998 -1.274 0.61299998 1
7.7880001 -1.381 0.78299999 1
8.427 -1.507 0.98299998 2
9.1789999 -1.658 1.22 2
10.082 -1.8380001 1.5039999 1
6.7919998 -1.242 0.46900001 3
7.2459998 -1.335 0.616 1
7.7950001 -1.448 0.787 2
8.441 -1.581 0.98900002 2
0 0 0 50
10.079 -1.924 1.5089999 1
6.789 -1.299 0.47099999 2
7.2540002 -1.398 0.61900002 1
7.7950001 -1.5140001 0.79100001 2
8.5410004 -1.673 1.0039999 2
9.1890001 -1.816 1.23 2
9.4829998 -1.892 1.425 11
6.7940001 -1.3559999 0.47400001 1
7.243 -1.457 0.62099999 1
7.803 -1.582 0.79500002 2
8.8509998 -1.809 1.045 4
0 0 0 50
9.3260002 -1.941 1.406 48
6.8000002 -1.415 0.47799999 1
7.2470002 -1.5190001 0.625 2
7.8249998 -1.653 0.801 2
8.908 -1.898 1.057 4
9.3559999 -2.0109999 1.262 4
9.2880001 -2.0139999 1.406 57
6.8000002 -1.472 0.48100001 1
7.2459998 -1.581 0.62900001 1
7.8540001 -1.727 0.80800003 2
8.9289999 -1.979 1.064 4
9.3439999 -2.089 1.267 4
9.2670002 -2.0910001 1.41 56
6.8130002 -1.534 0.48500001 1
0 0 0 50
7.8600001 -1.796 0.81300002 2
8.8730001 -2.0439999 1.063 4
9.3310003 -2.168 1.271 3
9.2869997 -2.178 1.419 39
6.7969999 -1.5880001 0.48800001 1
7.2729998 -1.712 0.639 1
7.8210001 -1.855 0.81400001 2
8.79 -2.1010001 1.059 4
9.2469997 -2.2290001 1.266 2
9.5760002 -2.3299999 1.47 3
0 0 0 50
7.2810001 -1.776 0.64399999 1
7.829 -1.925 0.81999999 2
8.4919996 -2.105 1.029 1
9.257 -2.313 1.274 2
10.194 -2.5710001 1.573 1
6.8070002 -1.7079999 0.49599999 1
7.2820001 -1.84 0.64899999 1
7.8470001 -1.998 0.82700002 2
8.4960003 -2.181 1.035 1
9.3000002 -2.4070001 1.2869999 1
10.222 -2.6689999 1.586 1
6.848 -1.777 0.50300002 1
7.2969999 -1.908 0.65499997 1
7.7810001 -2.05 0.82599998 2
7.2319999 -1.92 0.88700002 20
7.191 -1.925 1.001 24
0 0 0 50
6.9050002 -1.852 0.51200002 2
7.3140001 -1.976 0.66100001 1
7.2140002 -1.9630001 0.77100003 25
7.1209998 -1.954 0.87900001 46
7.1090002 -1.966 0.99599999 52
7.1539998 -1.9960001 1.122 26
6.947 -1.925 0.51999998 2
7.3340001 -2.046 0.66900003 2
7.1409998 -2.007 0.76899999 39
7.0770001 -2.0050001 0.87900001 54
7.0700002 -2.0190001 0.99699998 57
0 0 0 50
6.9499998 -1.9859999 0.52499998 2
7.2750001 -2.0929999 0.66900003 9
7.1020002 -2.059 0.76999998 43
7.0489998 -2.059 0.88200003 59
7.033 -2.072 0.99800003 58
7.0840001 -2.105 1.125 38
6.9499998 -2.0469999 0.52999997 2
7.23 -2.145 0.671 14
7.0679998 -2.112 0.773 45
7.0170002 -2.1129999 0.884 82
7.0139999 -2.1289999 1.002 59
7.0679998 -2.165 1.13 34
6.948 -2.108 0.53500003 3
7.197 -2.1989999 0.67299998 15
7.0479999 -2.1689999 0.77700001 53
6.9959998 -2.1700001 0.88800001 68
0 0 0 50
7.0819998 -2.234 1.14 28
6.9380002 -2.1670001 0.54000002 5
7.2259998 -2.273 0.68199998 9
7.0549998 -2.234 0.78399998 36
7.0120001 -2.2379999 0.89700001 46
7.0229998 -2.26 1.018 40
7.1389999 -2.3169999 1.1569999 11
6.9650002 -2.2379999 0.54799998 2
7.3520002 -2.378 0.70099998 2
7.0999999 -2.313 0.796 29
0 0 0 50
7.0780001 -2.3429999 1.033 29
10.519 -3.5120001 1.717 1
6.902 -2.279 0.54900002 1
7.4169998 -2.4660001 0.71399999 2
7.1739998 -2.4030001 0.81099999 15
7.0900002 -2.3929999 0.92199999 25
9.5439997 -3.247 1.404 2
10.571 -3.628 1.737 1
6.9159999 -2.3469999 0.55599999 6
7.4260001 -2.536 0.72100002 2
8.0229998 -2.76 0.91500002 1
0 0 0 50
9.5740004 -3.3469999 1.419 1
10.627 -3.747 1.7589999 1
6.941 -2.418 0.565 2
7.441 -2.6099999 0.73000002 2
8.04 -2.8399999 0.92500001 2
8.7690001 -3.122 1.159 2
9.625 -3.454 1.438 1
10.697 -3.872 1.785 1
6.9549999 -2.487 0.57200003 1
7.4699998 -2.6889999 0.74000001 2
8.073 -2.927 0.93699998 2
8.7840004 -3.2090001 1.171 2
0 0 0 50
10.76 -3.997 1.809 1
6.967 -2.5539999 0.57999998 2
7.4840002 -2.7620001 0.75 2
8.0970001 -3.01 0.949 2
8.8140001 -3.302 1.1849999 1
9.7220001 -3.671 1.476 1
10.842 -4.1300001 1.836 1
6.9809999 -2.6229999 0.588 1
7.5089998 -2.8410001 0.75999999 1
8.1140003 -3.0910001 0.95999998 2
8.8470001 -3.3970001 1.2 1
9.783 -3.786 1.497 1
0 0 0 50
6.9879999 -2.6900001 0.59500003 2
7.5180001 -2.9130001 0.76899999 1
8.1459999 -3.1789999 0.97299999 2
8.8859997 -3.494 1.216 1
9.8310003 -3.8970001 1.517 1
10.951 -4.3790002 1.885 1
7.006 -2.7620001 0.60399997 2
7.5479999 -2.9949999 0.77999997 1
8.1859999 -3.2709999 0.98699999 2
8.9329996 -3.596 1.233 1
9.8769999 -4.0079999 1.5369999 1
11.4 -4.6669998 1.977 2
7.0419998 -2.8410001 0.61400002 1
7.566 -3.072 0.79000002 2
0 0 0 50
8.9510002 -3.687 1.2460001 1
9.9209995 -4.1199999 1.557 1
11.47 -4.8049998 2.0050001 2
7.0440001 -2.9059999 0.62199998 2
7.5900002 -3.152 0.801 2
8.2489996 -3.45 1.0140001 2
9.007 -3.7950001 1.265 1
9.9820004 -4.2399998 1.58 1
11.369 -4.8709998 2.003 7
7.0770001 -2.9860001 0.63200003 1
7.6149998 -3.234 0.81199998 1
8.2840004 -3.5420001 1.028 2
9.0559998 -3.902 1.284 1
10.044 -4.3629999 1.603 1
0 0 0 50
7.1020002 -3.063 0.64200002 1
7.6560001 -3.323 0.82499999 1
8.3129997 -3.6340001 1.0420001 2
9.085 -4.0009999 1.3 1
10.086 -4.4790001 1.624 1
11.314 -5.0669999 2.027 32
7.1259999 -3.1400001 0.65200001 1
7.6680002 -3.401 0.83499998 1
8.3310003 -3.721 1.054 2
9.1479998 -4.1170001 1.3200001 1
10.187 -4.6220002 1.654 1
11.369 -5.2030001 2.053 34
7.1409998 -3.214 0.66100001 1
7.6919999 -3.484 0.847 1
8.3929996 -3.829 1.073 1
9.191 -4.2249999 1.339 1
10.398 -4.8179998 1.7029999 1
11.199 -5.2350001 2.04 2
7.1560001 -3.289 0.67000002 1
7.7150002 -3.5680001 0.85799998 1
8.4099998 -3.9170001 1.085 1
0 0 0 50
10.753 -5.0869999 1.776 2
11.362 -5.421 2.086 22
7.1890001 -3.3710001 0.68099999 1
7.7600002 -3.6630001 0.87199998 2
8.441 -4.0120001 1.099 2
9.2989998 -4.4530001 1.3789999 1
10.747 -5.1890001 1.791 2
11.219 -5.4629998 2.0769999 28
7.2030001 -3.4460001 0.69 2
7.7690001 -3.7409999 0.88200003 2
8.4700003 -4.1069999 1.114 1
9.3260002 -4.5560002 1.396 1
10.767 -5.302 1.809 3
11.077 -5.5019999 2.066 22
7.217 -3.5209999 0.69999999 1
7.8099999 -3.8340001 0.89600003 1
8.5010004 -4.2030001 1.1289999 1
9.4169998 -4.6900001 1.4220001 1
0 0 0 50
10.926 -5.533 2.0550001 21
7.244 -3.602 0.70999998 2
7.8150001 -3.9100001 0.90600002 1
8.5459995 -4.3060002 1.145 1
9.46 -4.802 1.441 1
10.813 -5.533 1.847 4
10.795 -5.5710001 2.0469999 21
7.2680001 -3.6819999 0.72000003 2
7.8559999 -4.0050001 0.92000002 1
8.5699997 -4.4000001 1.159 1
9.467 -4.8959999 1.455 1
10.812 -5.6370001 1.862 7
10.684 -5.618 2.0409999 21
7.2859998 -3.76 0.73000002 1
7.888 -4.0960002 0.93300003 1
8.6129999 -4.5029998 1.176 1
9.7139997 -5.1160002 1.505 2
10.75 -5.7069998 1.8660001 10
10.581 -5.6659999 2.0369999 21
7.3119998 -3.842 0.741 1
7.8920002 -4.1719999 0.94199997 1
8.651 -4.605 1.191 1
9.7989998 -5.2550001 1.531 2
10.663 -5.7639999 1.8660001 21
10.474 -5.71 2.0320001 20
7.3099999 -3.9089999 0.74800003 1
7.9590001 -4.2820001 0.95899999 1
0 0 0 50
9.8719997 -5.388 1.5549999 2
10.548 -5.803 1.8609999 21
10.366 -5.7519999 2.027 21
7.3429999 -3.9960001 0.759 1
7.9660001 -4.3610001 0.96899998 1
8.7259998 -4.8099999 1.223 1
9.9750004 -5.54 1.584 2
10.418 -5.8319998 1.852 24
10.275 -5.8010001 2.0239999 22
7.3730001 -4.0809999 0.76999998 1
7.9889998 -4.4489999 0.98100001 1
8.7550001 -4.908 1.237 1
10.028 -5.664 1.605 2
10.301 -5.8639998 1.845 22
10.172 -5.8410001 2.0179999 21
7.3839998 -4.1550002 0.77899998 1
8.026 -4.5440001 0.99400002 1
8.8199997 -5.027 1.256 1
10.039 -5.7639999 1.619 3
0 0 0 50
10.07 -5.8779998 2.0120001 21
7.4159999 -4.2410002 0.78899997 1
8.0489998 -4.631 1.005 1
8.8339996 -5.1170001 1.268 1
10.036 -5.8559999 1.631 3
10.055 -5.914 1.827 21
9.9820004 -5.921 2.0079999 22
7.4120002 -4.3080001 0.796 1
8.0760002 -4.7220001 1.017 1
9.052 -5.3280001 1.3099999 1
10.036 -5.9499998 1.643 4
9.9689999 -5.9569998 1.824 21
9.8889999 -5.9590001 2.003 22
7.4489999 -4.3969998 0.80699998 1
8.0950003 -4.8070002 1.028 1
9.0869999 -5.4320002 1.325 1
10.032 -6.04 1.654 10
9.8800001 -5.9949999 1.821 21
9.7989998 -5.9970002 1.998 21
7.454 -4.4679999 0.81400001 2
8.1230001 -4.8979998 1.039 1
0 0 0 50
9.9610004 -6.0890002 1.653 16
9.7869997 -6.0289998 1.8150001 21
9.7080002 -6.0300002 1.9910001 22
7.473 -4.546 0.82300001 1
8.1440001 -4.9829998 1.05 1
9.3240004 -5.7420001 1.3789999 2
9.8850002 -6.131 1.652 19
9.7069998 -6.0669999 1.811 21
9.6219997 -6.0640001 1.9859999 22
7.4840002 -4.6199999 0.82999998 1
8.151 -5.0599999 1.058 1
9.3079996 -5.816 1.385 2
9.7889996 -6.1589999 1.646 17
0 0 0 50
9.5410004 -6.0999999 1.9809999 22
7.4920001 -4.691 0.83700001 2
8.1780005 -5.1500001 1.068 1
9.3149996 -5.902 1.395 2
9.6920004 -6.1849999 1.64 19
9.5369997 -6.1329999 1.801 22
9.4580002 -6.132 1.975 23
7.5 -4.7620001 0.84399998 1
0 0 0 50
9.3000002 -5.974 1.401 3
9.5740004 -6.1929998 1.6289999 22
9.4580002 -6.164 1.796 24
9.3859997 -6.1669998 1.97 25
7.5219998 -4.8390002 0.852 2
8.2060003 -5.3080001 1.085 1
9.2889996 -6.046 1.408 3
9.4770002 -6.21 1.6210001 24
9.3839998 -6.1950002 1.791 24
0 0 0 50
7.5229998 -4.902 0.85699999 2
8.2309999 -5.3930001 1.095 1
9.3400002 -6.1570001 1.423 3
9.3859997 -6.2290001 1.614 25
9.3100004 -6.2249999 1.786 24
9.25 -6.2340002 1.961 25
7.5380001 -4.974 0.86400002 1
8.2270002 -5.4580002 1.1 1
9.316 -6.217 1.426 3
9.3079996 -6.2550001 1.608 25
0 0 0 50
9.1890001 -6.27 1.956 24
7.5370002 -5.0349998 0.86799997 1
8.3500004 -5.6079998 1.122 1
9.29 -6.2750001 1.429 4
9.2559996 -6.2940001 1.6059999 25
9.1870003 -6.2919998 1.778 24
9.1339998 -6.3049998 1.9529999 24
7.5450001 -5.0999999 0.87300003 1
8.3870001 -5.698 1.132 1
0 0 0 50
9.1859999 -6.3179998 1.6 25
9.1260004 -6.322 1.772 24
9.0749998 -6.335 1.947 24
7.5370002 -5.152 0.875 1
8.4390001 -5.7979999 1.143 2
9.257 -6.3969998 1.434 9
9.1260004 -6.3460002 1.595 26
9.066 -6.349 1.767 24
9.0179996 -6.3639998 1.942 24
7.5570002 -5.223 0.88099998 1
8.4659996 -5.8800001 1.151 2
9.2150002 -6.4349999 1.433 10
9.0579996 -6.3660002 1.589 25
9.0050001 -6.3720002 1.761 24
8.967 -6.3940001 1.937 24
0 0 0 50
8.5 -5.9650002 1.159 2
9.1630001 -6.4660001 1.429 19
9.0120001 -6.3979998 1.585 25
8.9460001 -6.3940001 1.7539999 24
8.9160004 -6.4200001 1.932 24
7.5570002 -5.3319998 0.88599998 1
8.5200005 -6.0380001 1.165 2
9.1140003 -6.494 1.425 16
8.9560003 -6.4190001 1.579 25
8.8929996 -6.4169998 1.748 24
8.8549995 -6.4359999 1.923 24
7.5609999 -5.3850002 0.88800001 1
8.4870005 -6.0710001 1.163 2
9.0530005 -6.5110002 1.419 19
0 0 0 50
8.8459997 -6.4400001 1.743 24
8.8100004 -6.46 1.9170001 23
7.559 -5.4320002 0.88999999 1
8.4840002 -6.1230001 1.164 2
9.0129995 -6.5380001 1.415 22
8.8570004 -6.4619999 1.568 25
8.7959995 -6.4590001 1.7359999 24
8.7559996 -6.4749999 1.908 24
7.552 -5.4749999 0.88999999 1
8.4829998 -6.1760001 1.165 2
8.9589996 -6.5539999 1.408 16
8.8109999 -6.4819999 1.561 25
0 0 0 50
8.7089996 -6.4910002 1.901 24
7.54 -5.5110002 0.889 1
8.4820004 -6.224 1.166 2
8.9110003 -6.5700002 1.401 20
8.7690001 -6.5 1.5549999 25
8.71 -6.4959998 1.722 25
8.6610003 -6.5029998 1.892 26
7.5289998 -5.5450001 0.88700002 1
8.3570004 -6.1789999 1.149 2
0 0 0 50
8.7510004 -6.533 1.553 9
8.6999998 -6.533 1.721 9
8.6389999 -6.5300002 1.888 10
7.5339999 -5.5869999 0.88700002 1
8.2679996 -6.1550002 1.136 2
8.8269997 -6.5999999 1.388 10
8.6870003 -6.5279999 1.541 4
8.6070004 -6.5050001 1.7029999 3
8.5249996 -6.4840002 1.863 2
7.4990001 -5.599 0.88200003 1
0 0 0 50
8.6569996 -6.5139999 1.3609999 3
8.5310001 -6.4499998 1.513 2
8.4569998 -6.4289999 1.6720001 2
8.3269997 -6.3699999 1.819 1
7.8829999 -5.921 0.926 4
8.3430004 -6.2870002 1.1440001 3
8.2880001 -6.2709999 1.301 5
8.2709999 -6.2870002 1.465 2
8.1949997 -6.2639999 1.62 4
8.1420002 -6.2600002 1.778 43
7.908 -5.973 0.92699999 4
0 0 0 50
8.2779999 -6.296 1.298 57
8.2340002 -6.2909999 1.457 61
8.1809998 -6.2820001 1.615 56
8.1309996 -6.2810001 1.773 79
7.5339999 -5.7189999 0.88099998 1
8.2349997 -6.27 1.125 2
8.2700005 -6.3189998 1.294 62
8.224 -6.3099999 1.4529999 61
8.1739998 -6.3039999 1.6109999 58
8.1230001 -6.3000002 1.7690001 78
7.842 -5.9790001 0.91399997 5
8.1759996 -6.25 1.113 2
0 0 0 50
8.2110004 -6.3249998 1.447 62
8.165 -6.3200002 1.6059999 58
8.1219997 -6.3200002 1.766 77
7.8060002 -5.9749999 0.90600002 5
8.217 -6.3049998 1.1160001 4
8.2559996 -6.3559999 1.285 62
8.21 -6.3439999 1.443 62
8.165 -6.3390002 1.602 58
8.1120005 -6.3309999 1.76 77
7.743 -5.9460001 0.89499998 4
8.2089996 -6.3189998 1.11 4
8.2480001 -6.368 1.28 62
8.2010002 -6.355 1.438 62
0 0 0 50
8.1110001 -6.3439999 1.755 76
7.3769999 -5.6810002 0.84799999 1
8.1969995 -6.3249998 1.104 4
8.2460003 -6.381 1.275 60
8.1990004 -6.3670001 1.432 61
8.1549997 -6.3579998 1.591 58
8.1070004 -6.3509998 1.749 76
7.3540001 -5.6750002 0.84100002 1
8.1610003 -6.3099999 1.094 4
8.243 -6.3889999 1.2690001 59
8.2030001 -6.3779998 1.428 60
8.1569996 -6.368 1.586 58
0 0 0 50
7.349 -5.6810002 0.83600003 1
8.1409998 -6.303 1.086 3
8.2419996 -6.3959999 1.263 56
8.1940002 -6.3769999 1.421 61
8.1499996 -6.3670001 1.579 58
8.1049995 -6.3590002 1.737 76
7.316 -5.6609998 0.82700002 1
8.1269999 -6.2969999 1.079 3
8.25 -6.4050002 1.2589999 53
8.2019997 -6.3850002 1.416 61
8.151 -6.3670001 1.573 59
8.1090002 -6.3610001 1.7309999 76
7.3010001 -5.651 0.82099998 1
0 0 0 50
8.2559996 -6.4099998 1.253 49
8.1949997 -6.3779998 1.408 61
8.1479998 -6.362 1.5650001 59
8.1059999 -6.3530002 1.723 75
7.2789998 -5.6329999 0.81199998 2
8.1070004 -6.2789998 1.064 3
8.2639999 -6.4109998 1.248 40
8.2069998 -6.382 1.404 61
8.1610003 -6.3649998 1.5599999 59
8.1129999 -6.3499999 1.7180001 74
7.243 -5.6009998 0.80199999 1
8.0780001 -6.2509999 1.054 3
8.2790003 -6.415 1.243 37
8.2060003 -6.3709998 1.396 61
8.1599998 -6.3530002 1.553 59
8.1269999 -6.349 1.7130001 73
7.1960001 -5.5570002 0.79100001 2
8.0609999 -6.2270002 1.044 3
8.2959995 -6.4159999 1.238 35
8.2130003 -6.3639998 1.3890001 63
8.1689997 -6.3449998 1.546 60
8.1300001 -6.335 1.705 73
7.1950002 -5.5450001 0.78500003 2
0 0 0 50
8.2980003 -6.4029999 1.2309999 31
8.2250004 -6.3559999 1.3839999 63
8.1809998 -6.336 1.541 59
8.1420002 -6.3249998 1.699 71
7.164 -5.507 0.77499998 2
8.1070004 -6.2319999 1.035 4
8.3059998 -6.3889999 1.224 24
8.2299995 -6.3390002 1.376 63
8.1890001 -6.3200002 1.533 59
8.1459999 -6.3039999 1.691 68
7.151 -5.4790001 0.76700002 2
8.0710001 -6.184 1.024 5
8.3710003 -6.4159999 1.226 5
8.2399998 -6.323 1.369 63
8.2010002 -6.303 1.527 59
8.1750002 -6.2989998 1.687 41
7.1329999 -5.4450002 0.759 2
8.0640001 -6.1529999 1.015 5
8.4849997 -6.4759998 1.234 5
0 0 0 50
8.2119999 -6.283 1.52 58
8.1870003 -6.2779999 1.681 21
7.099 -5.3959999 0.74900001 2
8.0290003 -6.099 1.003 5
8.5489998 -6.494 1.235 5
8.2740002 -6.289 1.358 56
8.3310003 -6.3410001 1.533 2
8.3549995 -6.3709998 1.705 3
7.0869999 -5.3610001 0.74199998 2
8.0010004 -6.0469999 0.99199998 5
8.5190001 -6.4369998 1.222 3
8.4370003 -6.3779998 1.376 2
8.5679998 -6.4840002 1.567 2
8.5570002 -6.487 1.737 2
0 0 0 50
7.8119998 -5.8709998 0.96100003 2
8.507 -6.3909998 1.212 3
8.6120005 -6.4710002 1.395 2
8.6879997 -6.533 1.579 6
8.6700001 -6.5300002 1.749 8
7.0240002 -5.2529998 0.722 1
7.6409998 -5.7069998 0.93300003 1
8.4560003 -6.3119998 1.196 3
8.7989998 -6.5679998 1.416 9
8.7349997 -6.5240002 1.5779999 22
8.6990004 -6.506 1.745 27
7.013 -5.211 0.71499997 2
7.6020002 -5.6399999 0.92000002 1
8.4329996 -6.2509999 1.184 2
0 0 0 50
8.7690001 -6.5009999 1.574 25
8.7390003 -6.4860001 1.743 25
6.9889998 -5.1570001 0.70599997 1
7.586 -5.5869999 0.91100001 1
8.5159998 -6.2659998 1.187 2
8.9060001 -6.5500002 1.415 20
8.8179998 -6.4860001 1.574 24
8.7880001 -6.4689999 1.742 24
6.9809999 -5.1110001 0.699 2
7.5669999 -5.5300002 0.90200001 1
0 0 0 50
8.9770002 -6.5479999 1.4170001 20
8.8610001 -6.4640002 1.571 24
8.8299999 -6.4450002 1.74 25
6.9499998 -5.0479999 0.69 2
7.546 -5.4689999 0.89300001 1
8.4759998 -6.1339998 1.166 2
9.0299997 -6.5300002 1.416 23
0 0 0 50
8.8859997 -6.4260001 1.74 25
6.9559999 -5.0079999 0.685 2
7.5100002 -5.395 0.88200003 1
8.4770002 -6.0799999 1.1569999 2
9.0810003 -6.506 1.415 21
8.9619999 -6.4190001 1.5700001 24
8.9399996 -6.4039998 1.7410001 25
6.928 -4.9429998 0.67699999 2
7.5170002 -5.3499999 0.87599999 1
8.4280005 -5.987 1.143 2
0 0 0 50
9.0190001 -6.395 1.5700001 24
8.993 -6.3769999 1.7410001 25
6.9070001 -4.8800001 0.67000002 2
7.4959998 -5.283 0.86799997 1
8.3400002 -5.8649998 1.124 2
9.1680002 -6.4390001 1.41 9
9.0830002 -6.3740001 1.573 24
9.0570002 -6.355 1.744 25
6.8990002 -4.8249998 0.66399997 2
7.4819999 -5.2189999 0.86000001 1
8.3450003 -5.8080001 1.117 2
0 0 0 50
9.1450005 -6.349 1.574 24
9.1190004 -6.3280001 1.7460001 25
6.8940001 -4.7709999 0.65799999 2
7.4450002 -5.1370001 0.85000002 2
8.2460003 -5.677 1.097 2
9.1610003 -6.296 1.393 3
9.2089996 -6.322 1.576 24
9.1800003 -6.2979999 1.748 25
6.9000001 -4.723 0.65399998 2
0 0 0 50
8.2360001 -5.605 1.089 2
9.1730003 -6.2309999 1.387 3
9.2749996 -6.2919998 1.579 24
9.25 -6.2709999 1.752 25
6.8709998 -4.6479998 0.64700001 2
7.4369998 -5.0149999 0.838 2
8.1280003 -5.4660001 1.069 1
9.2030001 -6.1760001 1.383 2
9.3610001 -6.2729998 1.585 24
0 0 0 50
6.8699999 -4.592 0.64300001 2
7.4099998 -4.9359999 0.83099997 1
8.1099997 -5.388 1.061 2
9.1700001 -6.079 1.372 3
9.4619999 -6.2620001 1.594 22
9.3870001 -6.2049999 1.76 25
6.8740001 -4.5380001 0.639 2
7.415 -4.8779998 0.82700002 2
8.0649996 -5.29 1.049 1
0 0 0 50
9.5570002 -6.243 1.602 22
9.4589996 -6.171 1.765 25
6.8600001 -4.4710002 0.634 2
7.3979998 -4.8039999 0.82099998 2
8.0799999 -5.23 1.046 1
9.1829996 -5.9299998 1.36 2
9.6560001 -6.223 1.6109999 21
9.5369997 -6.1389999 1.772 25
0 0 0 50
7.4039998 -4.744 0.81699997 2
8.073 -5.1560001 1.04 1
9.2200003 -5.8730001 1.359 3
9.7449999 -6.1939998 1.619 22
9.6210003 -6.1069999 1.78 25
6.8670001 -4.3559999 0.62900001 2
7.4029999 -4.677 0.81300002 2
8.0749998 -5.085 1.036 1
9.217 -5.7880001 1.353 2
9.8240004 -6.1560001 1.626 20
9.7089996 -6.0739999 1.789 20
0 0 0 50
7.4039998 -4.612 0.81 2
8.0469999 -4.9949999 1.028 1
9.1949997 -5.691 1.345 2
9.915 -6.1230001 1.6339999 14
9.7880001 -6.0339999 1.796 20
6.8610001 -4.2290001 0.62300003 2
7.4060001 -4.546 0.80800003 2
8.0469999 -4.9219999 1.024 1
9.1000004 -5.5500002 1.326 2
9.967 -6.0630002 1.636 8
9.8769999 -5.9970002 1.806 20
6.8709998 -4.1729999 0.62199998 2
7.401 -4.4759998 0.80400002 2
0 0 0 50
9.0629997 -5.4429998 1.316 1
10.009 -5.9970002 1.638 5
9.9659996 -5.9590001 1.8150001 20
6.8730001 -4.1100001 0.62099999 2
7.4130001 -4.414 0.80299997 2
8.0670004 -4.7849998 1.02 2
9.0209999 -5.3330002 1.3049999 1
10.026 -5.9120002 1.635 4
10.062 -5.921 1.827 20
6.8850002 -4.053 0.62 2
7.4180002 -4.3470001 0.801 2
8.0699997 -4.711 1.018 2
8.908 -5.1830001 1.285 1
10.046 -5.829 1.633 3
10.169 -5.8870001 1.841 21
6.8899999 -3.9909999 0.61900002 2
7.4289999 -4.283 0.801 2
8.0670004 -4.632 1.015 1
8.9029999 -5.0960002 1.2819999 1
10.058 -5.7399998 1.631 3
10.277 -5.8509998 1.855 20
6.9000001 -3.931 0.61900002 2
7.4320002 -4.2150002 0.80000001 2
8.0699997 -4.5580001 1.013 2
8.8549995 -4.9840002 1.271 1
10.146 -5.6929998 1.641 3
10.395 -5.8179998 1.8710001 21
0 0 0 50
7.441 -4.1479998 0.80000001 2
8.0869999 -4.4899998 1.0140001 2
8.8739996 -4.9089999 1.272 1
10.154 -5.5999999 1.6390001 2
10.515 -5.7839999 1.8890001 20
6.921 -3.8110001 0.62 2
7.4520001 -4.0830002 0.80000001 2
8.1070004 -4.4229999 1.015 2
8.8850002 -4.8299999 1.271 1
10.113 -5.48 1.6289999 2
10.632 -5.7459998 1.906 19
6.954 -3.6930001 0.62300003 2
7.4809999 -3.954 0.80199999 2
8.1389999 -4.283 1.017 2
8.9020004 -4.6659999 1.27 1
10.188 -5.322 1.636 2
10.88 -5.6669998 1.943 21
0 0 0 50
7.4879999 -3.8840001 0.80199999 2
8.1409998 -4.204 1.016 2
8.9110003 -4.5840001 1.27 1
10.14 -5.198 1.626 2
10.984 -5.6139998 1.959 19
6.9840002 -3.5739999 0.62599999 2
7.5050001 -3.8210001 0.80400002 2
8.1619997 -4.1360002 1.018 2
8.9130001 -4.4980001 1.2690001 1
10.065 -5.0609999 1.612 2
0 0 0 50
6.9959998 -3.5109999 0.62800002 2
7.52 -3.7550001 0.80599999 2
8.1689997 -4.059 1.0190001 2
8.9709997 -4.4400001 1.277 1
10.081 -4.9699998 1.614 2
11.126 -5.4679999 1.979 23
7.0170002 -3.4519999 0.63099998 2
7.5510001 -3.6949999 0.81 2
8.2010002 -3.994 1.023 2
8.96 -4.3460002 1.275 1
9.9569998 -4.8109999 1.592 1
0 0 0 50
7.0289998 -3.3889999 0.63300002 2
7.5640001 -3.628 0.81199998 2
8.2209997 -3.924 1.026 2
8.9949999 -4.2750001 1.28 1
9.9860001 -4.7280002 1.596 1
11.149 -5.2610002 1.979 31
7.0539999 -3.332 0.63700002 2
7.5869999 -3.5650001 0.81599998 2
8.2320004 -3.849 1.028 2
9.033 -4.2049999 1.285 1
0 0 0 50
11.277 -5.211 2.0009999 21
7.0669999 -3.27 0.639 2
7.612 -3.5020001 0.81999999 3
8.2510004 -3.777 1.031 2
9.0500002 -4.1240001 1.288 1
10.017 -4.546 1.601 1
11.289 -5.1059999 2.0020001 31
7.0780001 -3.2049999 0.64200002 2
7.6220002 -3.4319999 0.82200003 2
8.2980003 -3.7179999 1.038 2
0 0 0 50
10.071 -4.473 1.609 1
11.328 -5.0139999 2.0090001 28
7.1129999 -3.151 0.64700001 2
7.651 -3.3699999 0.82700002 2
8.309 -3.641 1.04 2
9.1020002 -3.97 1.2970001 1
10.085 -4.381 1.612 1
11.367 -4.9200001 2.0150001 23
7.1469998 -3.096 0.65200001 2
7.6739998 -3.306 0.83099997 2
8.3389997 -3.573 1.045 2
0 0 0 50
10.09 -4.2849998 1.613 1
11.487 -4.8590002 2.0369999 8
7.1669998 -3.0339999 0.65700001 2
7.6950002 -3.2390001 0.83499998 2
8.3690004 -3.5039999 1.051 2
9.1499996 -3.813 1.306 1
10.152 -4.2119999 1.624 1
11.8 -4.8769999 2.092 2
7.1750002 -2.9679999 0.65899998 2
0 0 0 50
8.3830004 -3.4289999 1.054 2
9.191 -3.7409999 1.313 1
10.175 -4.1230001 1.6289999 1
11.816 -4.7690001 2.096 2
7.204 -2.9100001 0.66399997 2
7.7519999 -3.112 0.84600002 2
8.4250002 -3.3640001 1.062 2
9.2139997 -3.661 1.318 1
10.222 -4.0440001 1.637 1
11.792 -4.6459999 2.092 2
0 0 0 50
7.7800002 -3.049 0.85100001 2
8.4490004 -3.293 1.067 2
9.2580004 -3.5899999 1.326 1
10.258 -3.96 1.6440001 1
11.433 -4.395 2.029 1
7.2529998 -2.79 0.67400002 2
7.8109999 -2.9860001 0.85600001 2
8.4910002 -3.2279999 1.074 2
9.2790003 -3.5090001 1.331 1
0 0 0 50
11.543 -4.3260002 2.05 1
7.289 -2.733 0.68000001 2
7.8319998 -2.918 0.861 2
8.5200005 -3.1570001 1.08 2
9.3070002 -3.4300001 1.337 1
10.286 -3.773 1.652 1
11.546 -4.2160001 2.052 1
7.3099999 -2.6700001 0.685 2
7.8709998 -2.8570001 0.86799997 2
8.5450001 -3.0840001 1.086 2
9.3699999 -3.3640001 1.348 1
10.349 -3.697 1.664 1
11.585 -4.1199999 2.0599999 1
0 0 0 50
7.8940001 -2.79 0.87300003 2
8.5699997 -3.0109999 1.091 2
9.3889999 -3.2809999 1.353 1
10.389 -3.6129999 1.6720001 1
11.644 -4.0310001 2.072 1
7.3660002 -2.549 0.69599998 2
7.914 -2.721 0.87800002 2
7.1469998 -2.4430001 0.912 0
7.1669998 -2.4360001 1.034 0
10.429 -3.527 1.681 1
11.704 -3.9400001 2.085 1
0 0 0 50
7.1760001 -2.3989999 0.79900002 16
7.079 -2.3529999 0.90499997 31
7.0760002 -2.339 1.023 29
7.165 -2.355 1.156 1
11.702 -3.829 2.0869999 1
7.4260001 -2.428 0.70700002 2
7.0929999 -2.3039999 0.792 31
7.0159998 -2.2650001 0.89899999 40
7.0240002 -2.2539999 1.017 37
7.1149998 -2.2720001 1.15 18
11.769 -3.7390001 2.0999999 1
7.2129998 -2.29 0.69 14
7.0479999 -2.223 0.78899997 45
0 0 0 50
7.0100002 -2.184 1.017 56
7.0879998 -2.1960001 1.147 25
11.88 -3.664 2.122 1
7.1599998 -2.2060001 0.68800002 28
7.046 -2.1559999 0.792 66
7.0100002 -2.132 0.903 141
7.0149999 -2.1210001 1.02 60
7.105 -2.1359999 1.151 27
11.918 -3.5639999 2.131 1
7.1570001 -2.138 0.69 35
7.0640001 -2.095 0.796 64
7.0320001 -2.072 0.90799999 81
0 0 0 50
7.1290002 -2.0769999 1.1569999 27
11.964 -3.4660001 2.142 1
7.1890001 -2.0799999 0.69599998 33
7.0910001 -2.0369999 0.80199999 63
7.0539999 -2.013 0.91299999 65
7.073 -2.006 1.0319999 56
7.1869998 -2.027 1.168 12
12.033 -3.375 2.1559999 1
7.2259998 -2.023 0.70200002 29
7.131 -1.982 0.80900002 49
7.0999999 -1.961 0.921 50
7.138 -1.9579999 1.043 30
7.2410002 -1.975 1.178 0
0 0 0 50
7.4860001 -2.026 0.73100001 2
7.2030001 -1.936 0.81999999 25
7.1849999 -1.918 0.935 24
7.2680001 -1.927 1.064 8
10.817 -2.8510001 1.763 1
12.131 -3.1789999 2.1789999 1
7.605 -1.989 0.745 2
8.1899996 -2.1259999 0.935 2
8.9219999 -2.299 1.163 1
9.7860003 -2.5050001 1.436 1
10.854 -2.7609999 1.771 1
12.169 -3.0769999 2.188 1
7.6399999 -1.927 0.75199997 2
8.2320004 -2.0610001 0.94199997 2
0 0 0 50
9.8409996 -2.4289999 1.447 1
9.3620005 -2.296 1.53 12
9.2189999 -2.247 1.659 0
7.6659999 -1.863 0.75700003 2
8.3769999 -2.02 0.96200001 2
9.0959997 -2.177 1.191 2
9.408 -2.2360001 1.385 11
9.2379999 -2.181 1.512 39
9.2589998 -2.1719999 1.668 36
7.6820002 -1.796 0.76200002 1
8.7030001 -2.0190001 1.002 4
9.2180004 -2.122 1.21 4
9.3070002 -2.1270001 1.373 43
9.2060003 -2.089 1.5089999 75
9.224 -2.0799999 1.664 50
7.7090001 -1.733 0.76700002 2
0 0 0 50
9.2700005 -2.05 1.22 4
9.3030005 -2.0409999 1.375 49
9.2150002 -2.007 1.512 85
9.2469997 -2.0009999 1.67 50
7.743 -1.668 0.773 2
8.8369999 -1.888 1.023 4
9.2860003 -1.9680001 1.225 4
9.335 -1.962 1.382 47
9.2530003 -1.9299999 1.521 61
9.3079996 -1.929 1.683 35
7.7740002 -1.604 0.77899998 2
8.7939997 -1.799 1.021 4
9.2550001 -1.877 1.223 4
9.4469995 -1.901 1.401 13
9.3610001 -1.869 1.541 30
9.434 -1.87 1.707 0
7.803 -1.539 0.78399998 1
0 0 0 50
9.1680002 -1.776 1.214 1
10.072 -1.936 1.4960001 1
11.186 -2.1329999 1.8430001 1
12.588 -2.382 2.28 1
7.829 -1.473 0.78899997 1
8.448 -1.575 0.986 2
9.2089996 -1.702 1.222 1
10.1 -1.851 1.503 1
11.219 -2.0380001 1.851 1
12.578 -2.2679999 2.2809999 1
7.848 -1.406 0.79400003 2
8.4680004 -1.502 0.991 2
9.2200003 -1.6210001 1.226 1
10.154 -1.7690001 1.513 1
11.281 -1.949 1.864 1
12.693 -2.175 2.3039999 1
7.8800001 -1.341 0.79900002 1
8.4989996 -1.432 0.99599999 2
0 0 0 50
10.157 -1.679 1.516 1
11.338 -1.858 1.875 1
12.715 -2.066 2.3099999 1
7.908 -1.276 0.80400002 2
8.5290003 -1.3609999 1.002 2
9.2980003 -1.469 1.24 2
10.235 -1.601 1.53 1
11.348 -1.7589999 1.8789999 1
12.738 -1.957 2.3169999 1
7.9330001 -1.209 0.80900002 2
8.5539999 -1.289 1.007 2
9.3389997 -1.393 1.248 1
10.269 -1.516 1.5369999 1
11.409 -1.668 1.891 1
12.808 -1.855 2.3310001 1
7.96 -1.143 0.81400001 2
8.5830002 -1.2180001 1.013 2
9.3649998 -1.314 1.2539999 1
10.298 -1.4299999 1.543 1
11.448 -1.573 1.9 1
12.859 -1.749 2.342 1
0 0 0 50
8.6070004 -1.145 1.017 2
9.3970003 -1.2359999 1.26 1
10.35 -1.346 1.553 1
11.491 -1.478 1.909 1
12.949 -1.647 2.3610001 1
7.3189998 -0.921 0.75199997 82
7.2839999 -0.90499997 0.86299998 84
9.4160004 -1.156 1.2640001 1
10.365 -1.257 1.557 1
11.526 -1.382 1.916 1
12.961 -1.5369999 2.365 2
7.3200002 -0.85699999 0.75400001 84
7.2820001 -0.84100002 0.86400002 84
7.671 -0.875 1.031 1
10.409 -1.1720001 1.5650001 1
11.575 -1.2869999 1.926 1
12.956 -1.423 2.3659999 1
7.3119998 -0.792 0.75400001 89
7.2800002 -0.77700001 0.86500001 77
0 0 0 50
10.46 -1.087 1.574 1
11.624 -1.192 1.936 1
13.047 -1.3200001 2.3840001 1
7.3109999 -0.72899997 0.75599998 87
7.2810001 -0.71399999 0.86699998 72
7.6950002 -0.74400002 1.0369999 0
10.483 -0.99900001 1.58 1
11.65 -1.094 1.942 1
0 0 0 50
7.3060002 -0.66500002 0.75700003 84
7.277 -0.65200001 0.86699998 66
7.6490002 -0.67400002 1.0319999 0
10.478 -0.90799999 1.58 1
11.683 -0.99699998 1.949 1
12.865 -1.08 2.3540001 3
7.302 -0.602 0.75700003 85
7.2680001 -0.588 0.86699998 56
9.4300003 -0.74900001 1.274 1
10.544 -0.82300001 1.592 1
11.714 -0.898 1.956 1
0 0 0 50
7.3000002 -0.53799999 0.75800002 88
7.2750001 -0.52600002 0.86900002 48
9.4359999 -0.66900003 1.276 3
10.574 -0.73500001 1.598 1
10.826 -0.73799998 1.809 4
10.568 -0.70599997 1.936 35
7.2859998 -0.47499999 0.75800002 86
7.2800002 -0.46399999 0.87099999 36
9.2919998 -0.579 1.258 15
10.642 -0.64899999 1.609 1
10.627 -0.634 1.777 31
10.469 -0.61000001 1.919 43
7.2779999 -0.412 0.75800002 87
7.277 -0.40099999 0.87199998 27
9.3140001 -0.50099999 1.262 8
10.758 -0.56400001 1.628 5
10.525 -0.537 1.761 40
0 0 0 50
7.2849998 -0.34999999 0.75999999 85
7.302 -0.34 0.875 23
9.3710003 -0.42399999 1.271 11
10.719 -0.47099999 1.623 8
10.495 -0.44800001 1.757 44
10.392 -0.43000001 1.9069999 57
7.277 -0.28799999 0.75999999 84
7.3270001 -0.28 0.87900001 21
9.1960001 -0.33899999 1.248 17
0 0 0 50
10.494 -0.36000001 1.758 44
10.403 -0.34200001 1.91 50
7.579 -0.236 0.792 6
7.6220002 -0.227 0.91500002 2
9.4510002 -0.26899999 1.283 6
10.746 -0.292 1.6289999 11
10.528 -0.271 1.765 43
10.428 -0.25600001 1.915 47
8.2790003 -0.18799999 0.866 1
8.9219999 -0.19 1.072 1
10.244 -0.205 1.392 5
10.797 -0.20200001 1.638 2
10.568 -0.184 1.772 41
10.467 -0.169 1.923 45
5.8299999 -0.082999997 0.61000001 1
8.9499998 -0.116 1.077 1
10.091 -0.118 1.372 3
10.828 -0.111 1.6440001 1
10.656 -0.096000001 1.788 12
10.556 -0.082000002 1.941 32
8.2840004 -0.048 0.86799997 2
0 0 0 50
9.8009996 -0.032000002 1.334 1
10.786 -0.021 1.638 1
12.208 -0.0089999996 2.049 6
12.541 0.0060000001 2.3069999 68
8.3050003 0.02 0.87099999 2
8.9770002 0.033 1.081 1
9.8269997 0.048999999 1.3380001 1
10.857 0.067000002 1.65 1
12.421 0.093999997 2.086 4
12.527 0.11 2.3050001 82
8.3260002 0.090000004 0.87400001 1
9.0089998 0.108 1.086 1
9.8389997 0.13 1.34 1
10.895 0.15899999 1.6569999 1
12.427 0.197 2.0880001 4
12.537 0.215 2.3080001 76
8.3409996 0.16 0.87599999 2
9.0209999 0.184 1.0880001 1
9.8929996 0.214 1.348 1
10.954 0.25099999 1.666 1
12.383 0.29899999 2.0810001 4
12.483 0.317 2.299 56
0 0 0 50
9.0489998 0.259 1.092 1
9.9139996 0.296 1.352 1
10.963 0.34099999 1.669 1
12.422 0.403 2.089 5
12.674 0.42699999 2.335 7
8.382 0.29899999 0.88099998 2
9.0609999 0.33500001 1.094 1
9.9209995 0.37900001 1.354 1
11.022 0.435 1.678 1
12.298 0.5 2.069 2
13.071 0.54900002 2.4100001 8
8.3900003 0.36899999 0.88300002 2
9.1090002 0.41100001 1.1 2
9.9750004 0.463 1.362 1
11.01 0.52399999 1.678 1
12.209 0.59600002 2.0550001 2
13.146 0.65899998 2.425 8
0 0 0 0
0 0 0 0
0 0 0 0
0 0 0 0
0 0 0 0
0 0 0 0
0 0 0 0
0 0 0 0
0 0 0 0
0 0 0 0
0 0 0 0
0 0 0 0
0 0 0 0
0 0 0 0
0 0 0 0
0 0 0 0
0 0 0 0
0 0 0 0
0 0 0 0
0 0 0 0
0 0 0 0
0 0 0 0
0 0 0 0
0 0 0 0
0 0 0 0
0 0 0 0
0 0 0 0
0 0 0 0
0 0 0 0
0 0 0 0
0 0 0 0
0 0 0 0
0 0 0 0
0 0 0 0
0 0 0 0
0 0 0 0
0 0 0 0
0 0 0 0
0 0 0 0
0 0 0 0
0 0 0 0
0 0 0 0
0 0 0 0
0 0 0 0
0 0 0 0
0 0 0 0
0 0 0 0
0 0 0 0
0 0 0 0
0 0 0 0
0 0 0 0
0 0 0 0
0 0 0 0
0 0 0 0
0 0 0 0
0 0 0 0
0 0 0 0
0 0 0 0
0 0 0 0
0 0 0 0
0 0 0 0
0 0 0 0
0 0 0 0
0 0 0 0
0 0 0 0
0 0 0 0
0 0 0 0
0 0 0 0
0 0 0 0
0 0 0 0
0 0 0 0
0 0 0 0
0 0 0 0
0 0 0 0
0 0 0 0
0 0 0 0
0 0 0 0
0 0 0 0
0 0 0 0
0 0 0 0
0 0 0 0
0 0 0 0
0 0 0 0
0 0 0 0
0 0 0 0
0 0 0 0
0 0 0 0
0 0 0 0
0 0 0 0
0 0 0 0
0 0 0 0
0 0 0 0
0 0 0 0
0 0 0 0
0 0 0 0
0 0 0 0
8.4160004 0.43900001 0.88599998 2
9.1190004 0.48699999 1.102 1
9.9820004 0.54500002 1.363 1
11.043 0.616 1.683 1
12.352 0.70499998 2.0799999 1
13.197 0.76999998 2.4360001 8
8.434 0.509 0.88800001 1
0 0 0 50
10.026 0.62900001 1.37 1
11.136 0.713 1.698 1
12.378 0.80699998 2.086 1
13.253 0.88099998 2.447 8
8.4449997 0.579 0.88999999 1
8.3850002 0.58499998 1.0140001 3
10.057 0.713 1.375 1
8.349 0.602 1.274 12
11.498 0.84399998 1.939 36
11.44 0.85399997 2.1140001 56
8.4619999 0.64899999 0.89200002 1
9.1920004 0.71499997 1.113 1
8.3570004 0.66000003 1.143 0
0 0 0 50
11.36 0.92500001 1.9170001 52
11.298 0.935 2.089 54
8.5 0.72100002 0.89700001 1
9.0170002 0.77499998 1.092 1
8.3500004 0.727 1.143 10
8.2309999 0.727 1.258 82
8.1949997 0.73400003 1.383 11
11.138 1.012 2.0599999 53
8.4989996 0.79000002 0.89700001 1
9.2270002 0.86799997 1.118 1
0 0 0 50
8.2080002 0.79100001 1.255 87
8.1379995 0.79400003 1.375 81
10.997 1.087 2.036 53
8.5220003 0.86000001 0.89999998 1
9.257 0.94400001 1.123 1
8.2609997 0.852 1.132 43
8.1899996 0.85399997 1.253 86
8.1280003 0.85799998 1.374 83
10.855 1.159 2.0109999 52
8.5310001 0.92799997 0.90200001 1
9.2790003 1.02 1.127 1
8.2510004 0.91600001 1.132 69
8.1739998 0.917 1.252 85
8.1169996 0.921 1.374 82
8.7799997 1.007 1.628 8
0 0 0 50
9.283 1.094 1.128 1
8.2299995 0.97899997 1.13 83
8.1709995 0.98199999 1.253 86
8.1079998 0.98400003 1.373 81
8.7720003 1.076 1.628 13
8.5670004 1.068 0.90799999 1
9.3369999 1.174 1.136 1
8.2229996 1.043 1.13 82
8.1680002 1.046 1.253 86
8.1059999 1.048 1.375 82
8.6890001 1.1339999 1.615 19
8.5930004 1.1390001 0.91100001 1
10.016 1.3380001 1.219 6
8.2740002 1.114 1.1390001 34
8.1599998 1.108 1.253 79
8.1049995 1.1109999 1.376 79
0 0 0 50
8.6169996 1.21 0.91500002 1
9.9799995 1.4119999 1.217 6
8.3610001 1.191 1.152 2
8.2419996 1.184 1.268 25
8.1230001 1.176 1.381 44
8.073 1.1799999 1.5039999 65
8.3059998 1.2309999 0.88300002 0
9.9139996 1.479 1.21 5
8.7930002 1.321 1.2130001 0
8.3739996 1.268 1.29 1
8.1890001 1.25 1.3940001 26
8.0760002 1.243 1.506 46
0 0 0 50
9.7410002 1.529 1.191 2
8.7530003 1.383 1.209 1
10.06 1.601 1.552 53
10.017 1.6059999 1.707 48
8.1890001 1.324 1.53 21
8.7110004 1.425 0.92900002 1
9.5860004 1.5779999 1.174 1
9.9530001 1.649 1.378 9
9.9440002 1.659 1.536 52
9.9020004 1.664 1.6900001 48
9.8540001 1.669 1.8430001 48
8.757 1.5 0.935 1
9.6239996 1.658 1.181 2
0 0 0 50
9.8339996 1.716 1.522 51
9.7880001 1.72 1.674 48
9.7469997 1.725 1.826 48
6.598 1.1799999 0.70599997 0
6.6079998 1.189 0.81199998 21
9.7659998 1.767 1.3559999 30
9.7259998 1.771 1.508 51
9.6789999 1.775 1.658 52
9.6339998 1.779 1.809 53
6.5560002 1.223 0.70300001 10
6.5050001 1.219 0.801 10
6.4759998 1.221 0.90100002 11
0 0 0 50
9.5790005 1.8279999 1.6440001 53
9.5380001 1.8329999 1.794 47
6.6230001 1.285 0.71200001 17
6.4060001 1.249 0.79100001 12
6.395 1.253 0.89200002 17
6.3260002 1.247 0.98500001 19
6.4159999 1.273 1.104 0
6.3720002 1.272 1.201 5
6.3979998 1.289 0.69 15
6.3649998 1.288 0.78799999 17
0 0 0 50
6.3200002 1.293 0.986 19
6.3899999 1.3150001 1.102 5
6.3800001 1.322 1.205 5
6.3309999 1.322 0.68400002 21
6.448 1.353 0.80000001 65
6.3039999 1.33 0.884 21
6.3309999 1.342 0.99000001 16
6.3369999 1.352 1.095 25
6.3060002 1.353 1.194 15
6.3720002 1.378 0.69099998 14
6.5250001 1.4170001 0.81199998 13
6.3299999 1.382 0.88999999 15
6.3200002 1.386 0.991 20
6.355 1.402 1.101 14
6.3400002 1.4069999 1.2029999 16
6.3990002 1.4299999 0.69599998 11
0 0 0 50
6.3060002 1.4220001 0.889 15
6.3579998 1.441 1 10
6.3509998 1.447 1.103 6
6.296 1.443 1.199 11
6.3800001 1.472 0.69700003 15
6.382 1.478 0.80000001 13
6.329 1.473 0.89499998 17
6.3860002 1.494 1.008 0
6.3119998 1.484 1.1 5
6.3080001 1.492 1.204 11
0 0 0 50
6.4289999 1.536 0.80800003 1
6.3720002 1.529 0.90499997 1
8.9560003 2.1589999 1.418 57
8.9139996 2.1600001 1.559 53
8.8789997 2.1630001 1.7 57
6.4060001 1.569 0.70599997 14
8.9329996 2.1960001 1.128 63
8.8970003 2.197 1.268 59
8.8699999 2.2 1.41 58
8.8280001 2.201 1.549 55
8.7950001 2.2049999 1.6900001 53
8.8710003 2.2349999 0.98199999 13
0 0 0 50
8.8190002 2.2390001 1.262 60
8.7869997 2.2409999 1.402 58
8.7449999 2.2420001 1.54 56
8.7150002 2.2460001 1.6799999 53
8.7969999 2.277 0.97799999 14
8.7810001 2.2809999 1.119 69
8.7440004 2.2809999 1.256 59
8.7159996 2.283 1.396 59
0 0 0 50
8.6440001 2.2880001 1.6720001 54
8.7139997 2.3150001 0.97399998 12
8.6920004 2.3169999 1.112 68
8.6680002 2.3199999 1.251 59
8.6389999 2.322 1.3890001 60
8.6059999 2.3239999 1.527 57
8.5710001 2.3269999 1.665 56
8.6370001 2.3529999 0.97100002 13
8.6219997 2.3570001 1.108 70
8.5860004 2.3559999 1.245 61
8.5550003 2.3570001 1.381 60
8.5229998 2.3599999 1.518 56
0 0 0 50
8.5959997 2.3989999 0.97100002 33
8.5469999 2.3929999 1.105 70
8.5089998 2.392 1.239 62
8.4849997 2.395 1.376 61
8.4510002 2.3959999 1.512 57
8.4200001 2.4000001 1.649 58
8.5170002 2.4330001 0.96799999 50
0 0 0 50
8.4469995 2.4289999 1.2359999 61
8.4189997 2.431 1.372 60
8.3800001 2.431 1.506 56
8.3430004 2.4330001 1.641 54
8.4379997 2.4649999 0.96499997 70
8.4040003 2.4619999 1.098 70
8.3710003 2.461 1.232 62
8.349 2.4649999 1.367 60
8.316 2.4660001 1.502 57
8.2749996 2.4660001 1.6339999 55
0 0 0 50
8.3389997 2.4949999 1.097 71
8.3059998 2.4949999 1.229 63
8.2790003 2.4960001 1.363 62
8.243 2.497 1.4960001 58
8.2080002 2.4979999 1.628 56
8.2939997 2.526 0.96100003 72
8.2639999 2.5239999 1.094 40
8.2390003 2.5250001 1.226 62
8.2060003 2.5250001 1.358 61
8.1800003 2.529 1.492 58
0 0 0 50
8.2379999 2.5580001 0.96200001 74
8.21 2.5580001 1.0930001 84
8.1750002 2.556 1.224 66
8.1520004 2.559 1.357 66
8.1169996 2.5580001 1.488 62
8.0819998 2.5599999 1.619 61
8.1809998 2.5899999 0.96200001 76
8.1479998 2.5869999 1.092 73
0 0 0 50
8.0799999 2.5840001 1.352 67
8.0489998 2.586 1.484 61
8.026 2.5910001 1.617 67
8.1190004 2.618 0.96200001 76
8.0889997 2.6159999 1.092 74
8.0579996 2.615 1.222 69
8.0279999 2.615 1.352 67
7.9980001 2.6159999 1.482 62
7.9679999 2.619 1.613 61
8.066 2.6459999 0.963 75
8.0319996 2.6429999 1.092 71
8.0030003 2.642 1.222 66
0 0 0 50
7.9390001 2.642 1.48 61
7.908 2.645 1.61 60
8.0200005 2.675 0.96600002 74
7.9860001 2.6719999 1.094 71
7.948 2.668 1.221 67
7.9239998 2.6700001 1.351 67
7.888 2.6700001 1.479 62
7.8540001 2.671 1.608 61
7.9640002 2.7 0.96700001 75
7.9310002 2.697 1.094 72
7.902 2.6960001 1.222 68
0 0 0 50
7.8439999 2.697 1.48 61
7.8080001 2.698 1.608 62
7.9180002 2.7260001 0.97000003 74
7.882 2.721 1.096 70
7.8530002 2.72 1.224 68
7.8249998 2.721 1.352 66
7.7930002 2.7219999 1.479 63
7.7639999 2.724 1.608 63
7.8639998 2.747 0.972 73
7.8340001 2.7449999 1.098 71
7.803 2.743 1.225 68
7.776 2.744 1.352 67
0 0 0 50
7.7160001 2.7479999 1.608 64
7.8189998 2.77 0.97399998 71
7.7940001 2.7690001 1.101 72
7.7620001 2.767 1.227 68
7.7290001 2.7650001 1.353 67
7.6999998 2.766 1.48 64
7.6719999 2.77 1.608 68
7.7750001 2.79 0.97799999 69
7.75 2.79 1.104 70
7.7210002 2.7880001 1.23 67
7.6950002 2.789 1.357 67
0 0 0 50
7.6259999 2.79 1.609 63
7.7360001 2.812 0.98199999 71
7.7090001 2.8099999 1.107 70
7.6739998 2.806 1.232 67
7.6469998 2.8069999 1.358 66
7.6170001 2.809 1.484 63
7.5869999 2.8110001 1.6109999 62
7.6929998 2.8299999 0.98500001 70
0 0 0 50
7.638 2.826 1.235 66
7.612 2.8280001 1.3609999 66
7.5819998 2.829 1.487 63
7.5469999 2.829 1.612 62
7.658 2.848 0.99000001 69
7.6350002 2.848 1.115 70
7.598 2.8429999 1.238 67
7.5689998 2.8429999 1.363 66
7.5409999 2.846 1.489 62
7.5040002 2.845 1.613 62
7.592 2.882 1 71
7.5619998 2.878 1.123 71
7.5349998 2.8770001 1.247 68
7.5089998 2.8789999 1.372 65
0 0 0 50
7.448 2.882 1.622 62
7.5560002 2.8940001 1.0039999 67
7.5320001 2.8929999 1.128 69
7.5019999 2.891 1.251 66
7.4759998 2.8929999 1.376 65
7.4460001 2.8940001 1.5 63
7.4190001 2.898 1.626 62
7.533 2.9100001 1.011 69
7.506 2.908 1.1339999 67
7.4759998 2.9059999 1.257 63
0 0 0 50
7.4120002 2.9059999 1.503 61
7.3889999 2.911 1.6289999 62
7.5 2.9200001 1.016 67
7.4780002 2.9200001 1.1390001 66
7.4460001 2.918 1.261 64
7.4229999 2.9200001 1.386 64
7.388 2.9200001 1.5089999 63
7.3600001 2.9230001 1.633 63
7.4780002 2.9330001 1.022 66
7.454 2.9319999 1.145 70
7.4239998 2.9300001 1.267 66
7.3940001 2.9289999 1.39 67
7.3660002 2.9319999 1.5140001 65
7.3309999 2.9330001 1.637 65
0 0 0 50
7.4260001 2.9400001 1.15 69
7.4000001 2.9400001 1.273 65
7.3730001 2.941 1.396 64
7.3379998 2.9400001 1.518 63
7.3070002 2.9430001 1.642 65
7.4320002 2.951 1.034 66
7.4089999 2.95 1.1569999 68
7.382 2.95 1.279 65
7.3520002 2.95 1.402 65
7.3189998 2.95 1.524 64
7.29 2.954 1.648 64
7.4159999 2.96 1.041 67
7.3850002 2.9560001 1.1619999 67
7.3559999 2.9549999 1.284 65
7.3270001 2.9560001 1.4069999 64
7.303 2.9590001 1.531 63
7.2670002 2.96 1.652 64
7.3969998 2.9660001 1.048 66
7.3720002 2.9649999 1.169 68
7.3439999 2.964 1.2920001 65
7.3179998 2.9649999 1.414 65
7.283 2.9649999 1.536 63
7.2509999 2.967 1.659 64
7.3870001 2.973 1.0549999 67
7.3590002 2.971 1.177 67
0 0 0 50
7.3010001 2.971 1.42 65
7.2690001 2.971 1.543 63
7.2399998 2.9749999 1.666 63
7.3790002 2.98 1.063 67
7.348 2.9760001 1.184 67
7.3179998 2.9749999 1.3049999 65
7.2870002 2.9749999 1.427 64
7.2579999 2.977 1.549 61
7.224 2.9779999 1.671 64
7.3670001 2.983 1.0700001 66
7.3379998 2.98 1.191 67
0 0 0 50
7.2810001 2.98 1.434 62
7.25 2.9820001 1.557 62
7.2150002 2.983 1.679 63
7.3610001 2.9860001 1.0779999 66
7.3309999 2.983 1.198 67
7.302 2.9820001 1.3200001 65
7.2729998 2.983 1.442 64
7.237 2.983 1.563 62
7.2069998 2.9860001 1.686 63
7.3540001 2.987 1.085 67
7.3249998 2.9849999 1.205 68
7.2979999 2.984 1.327 65
0 0 0 50
7.2309999 2.984 1.5700001 62
7.204 2.9890001 1.694 63
7.3509998 2.987 1.092 66
7.3270001 2.987 1.214 67
7.2919998 2.984 1.334 65
7.2639999 2.9849999 1.456 65
7.2309999 2.9860001 1.5779999 62
7.2010002 2.99 1.701 64
7.3499999 2.987 1.1 66
7.3280001 2.987 1.222 67
7.2880001 2.983 1.342 64
7.2649999 2.9860001 1.464 64
7.23 2.9860001 1.586 62
7.1999998 2.99 1.709 63
7.3590002 2.984 1.1160001 66
7.329 2.9820001 1.2359999 67
7.2930002 2.9779999 1.3559999 64
7.2670002 2.9809999 1.479 64
7.2319999 2.9809999 1.601 62
7.198 2.984 1.723 64
0 0 0 50
7.3309999 2.977 1.243 69
7.3000002 2.9760001 1.365 66
7.2740002 2.9779999 1.487 65
7.2420001 2.9790001 1.61 64
7.2080002 2.9820001 1.732 63
7.3709998 2.9749999 1.13 66
7.3439999 2.974 1.252 69
7.3060002 2.97 1.372 66
0 0 0 50
7.2509999 2.9760001 1.618 63
7.2129998 2.977 1.74 64
7.3829999 2.97 1.138 67
7.348 2.9660001 1.2589999 69
7.316 2.964 1.38 65
7.29 2.967 1.503 65
7.263 2.971 1.627 64
7.223 2.971 1.749 63
7.388 2.96 1.145 67
0 0 0 50
7.3340001 2.96 1.3890001 67
7.3070002 2.9619999 1.512 67
7.2680001 2.961 1.6339999 64
7.244 2.9679999 1.7589999 64
7.4099998 2.9549999 1.153 66
7.3829999 2.954 1.275 67
7.3509998 2.9530001 1.397 63
7.3200002 2.954 1.52 65
7.2859998 2.9549999 1.643 63
7.2529998 2.9579999 1.766 61
0 0 0 50
7.3969998 2.944 1.283 67
7.3670001 2.9430001 1.405 64
7.3369999 2.9449999 1.528 68
7.3049998 2.947 1.652 62
7.2690001 2.9489999 1.775 62
7.4439998 2.9349999 1.168 67
7.4130001 2.9330001 1.289 69
7.381 2.9319999 1.4119999 63
7.3520002 2.9330001 1.535 66
0 0 0 50
7.289 2.9400001 1.784 63
7.4629998 2.924 1.175 65
7.4400001 2.924 1.298 67
7.4039998 2.9219999 1.42 64
7.3740001 2.9230001 1.544 68
7.3460002 2.927 1.669 65
7.3070002 2.928 1.7920001 62
7.4879999 2.9119999 1.182 66
7.461 2.911 1.3049999 70
7.4320002 2.9119999 1.429 64
7.3969998 2.911 1.552 67
7.3610001 2.9119999 1.675 66
0 0 0 50
7.5159998 2.9000001 1.1900001 68
7.4829998 2.8970001 1.312 68
7.4549999 2.898 1.436 66
7.4250002 2.8989999 1.5599999 67
7.388 2.9000001 1.684 65
7.3629999 2.9059999 1.811 65
7.5440001 2.8859999 1.197 69
7.5149999 2.885 1.3200001 71
7.4829998 2.8840001 1.443 66
7.448 2.8829999 1.567 69
7.4200001 2.8870001 1.693 66
0 0 0 50
7.5700002 2.869 1.2029999 69
7.54 2.868 1.326 70
7.5100002 2.868 1.451 67
7.4790001 2.869 1.576 68
7.448 2.872 1.701 66
7.4159999 2.875 1.827 65
7.6040001 2.8540001 1.21 70
7.572 2.852 1.334 70
7.5430002 2.852 1.4579999 67
7.507 2.852 1.5829999 67
7.4749999 2.8529999 1.7079999 65
0 0 0 50
7.6420002 2.8380001 1.217 68
7.6079998 2.835 1.341 68
7.573 2.8329999 1.465 66
7.5450001 2.836 1.592 67
7.5139999 2.8380001 1.7180001 66
7.4809999 2.8410001 1.845 66
7.6760001 2.819 1.223 67
7.6389999 2.8150001 1.347 68
7.6110001 2.816 1.473 66
7.5809999 2.8169999 1.599 67
7.5479999 2.819 1.726 65
7.5120001 2.8210001 1.852 66
7.7080002 2.7969999 1.229 67
7.677 2.7950001 1.354 69
7.6440001 2.7950001 1.479 67
7.6160002 2.7969999 1.6059999 69
0 0 0 50
7.553 2.803 1.862 66
7.7519999 2.7780001 1.235 67
7.7179999 2.776 1.3609999 68
7.6859999 2.7750001 1.487 66
7.6560001 2.776 1.614 69
7.6230001 2.7780001 1.742 67
7.5879998 2.7809999 1.869 68
7.7930002 2.756 1.2410001 68
7.7589998 2.7539999 1.367 69
7.7280002 2.7539999 1.494 68
7.698 2.7550001 1.622 70
7.665 2.757 1.75 68
7.6350002 2.7609999 1.8789999 68
7.8379998 2.734 1.248 70
7.8070002 2.733 1.375 69
7.7709999 2.73 1.501 66
7.7389998 2.7309999 1.6289999 68
7.7080002 2.734 1.758 68
7.677 2.7379999 1.887 72
7.8860002 2.711 1.2539999 69
7.849 2.707 1.38 68
7.8169999 2.7060001 1.508 66
7.7859998 2.7079999 1.637 69
7.7540002 2.71 1.765 67
7.7249999 2.714 1.896 68
0 0 0 50
7.9000001 2.684 1.387 67
7.869 2.6830001 1.516 66
7.8280001 2.681 1.643 67
7.7979999 2.684 1.773 66
7.7719998 2.6889999 1.905 74
7.9809999 2.6600001 1.265 67
7.9439998 2.6559999 1.392 65
7.9130001 2.6559999 1.521 65
7.8829999 2.6570001 1.651 66
7.8530002 2.6600001 1.7819999 66
7.8119998 2.6600001 1.911 66
8.0270004 2.631 1.2690001 67
0 0 0 50
7.9619999 2.628 1.527 62
7.9320002 2.6289999 1.658 65
7.901 2.632 1.789 65
7.8660002 2.6340001 1.92 66
8.0790005 2.6029999 1.274 66
8.0459995 2.5999999 1.403 64
8.0179996 2.6010001 1.534 61
7.9879999 2.602 1.666 65
7.9580002 2.605 1.798 64
7.9180002 2.605 1.928 65
8.1420002 2.576 1.281 64
8.1070004 2.572 1.41 62
8.0749998 2.572 1.541 59
8.0509996 2.575 1.675 65
8.0109997 2.575 1.8049999 62
7.9710002 2.575 1.936 65
0 0 0 50
8.1639996 2.543 1.416 64
8.1339998 2.5420001 1.548 61
8.1099997 2.5450001 1.682 64
8.0749998 2.546 1.8150001 63
8.0430002 2.549 1.948 63
8.2609997 2.5150001 1.291 61
8.2320004 2.5139999 1.423 62
8.2010002 2.513 1.556 60
8.1719999 2.5150001 1.6900001 64
8.1300001 2.513 1.821 62
0 0 0 50
8.3260002 2.484 1.2970001 63
8.2989998 2.483 1.4299999 62
8.2670002 2.4820001 1.563 60
8.2299995 2.4809999 1.696 62
8.1969995 2.483 1.831 60
8.165 2.4849999 1.966 62
8.3999996 2.454 1.303 63
8.3579998 2.4489999 1.4349999 62
8.3330002 2.45 1.5700001 59
8.3050003 2.451 1.706 63
8.2609997 2.4489999 1.8380001 62
0 0 0 50
8.4619999 2.4189999 1.308 61
8.4379997 2.4189999 1.443 62
8.401 2.4170001 1.577 60
8.3690004 2.4159999 1.7130001 63
8.3299999 2.4159999 1.848 62
8.3009996 2.4189999 1.985 62
8.533 2.3840001 1.313 61
8.5039997 2.3829999 1.449 60
8.467 2.3800001 1.584 60
8.4399996 2.381 1.721 63
0 0 0 50
8.375 2.3840001 1.9960001 68
8.6029997 2.348 1.318 60
8.5749998 2.346 1.455 61
8.5410004 2.345 1.591 62
8.5100002 2.345 1.729 63
8.4770002 2.346 1.8660001 61
8.4449997 2.348 2.0050001 64
8.6809998 2.312 1.324 57
8.651 2.3110001 1.461 62
8.618 2.309 1.598 61
8.5880003 2.309 1.737 62
0 0 0 50
8.5220003 2.3110001 2.0150001 64
8.7539997 2.273 1.329 56
8.7250004 2.2720001 1.467 62
8.6990004 2.2720001 1.607 61
8.6669998 2.2709999 1.7460001 64
8.6339998 2.2709999 1.886 62
8.5959997 2.2709999 2.0250001 64
8.8299999 2.233 1.334 56
8.8050003 2.2320001 1.473 59
8.7670002 2.2290001 1.612 60
8.7360001 2.2290001 1.752 62
8.6990004 2.2279999 1.892 61
0 0 0 50
8.915 2.194 1.34 56
8.8789997 2.1900001 1.479 58
8.8409996 2.187 1.618 59
8.816 2.188 1.76 62
8.7810001 2.188 1.901 60
8.7480001 2.1889999 2.0439999 62
6.3449998 1.517 0.94800001 1
6.3979998 1.534 1.0599999 0
6.3530002 1.527 1.1569999 0
8.9049997 2.1470001 1.77 60
6.2649999 1.516 1.351 0
6.2529998 1.5190001 1.454 0
6.3140001 1.466 0.93800002 11
6.3449998 1.477 1.046 14
6.2800002 1.465 1.138 8
6.3449998 1.485 1.255 14
6.2589998 1.47 1.3430001 10
6.2740002 1.479 1.4529999 11
6.3060002 1.42 0.93199998 13
6.323 1.427 1.0369999 16
6.283 1.421 1.133 12
6.2919998 1.427 1.239 15
6.2480001 1.4220001 1.335 7
6.223 1.4220001 1.4349999 14
6.3410001 1.383 0.93199998 16
6.2950001 1.376 1.027 21
6.3010001 1.38 1.131 17
6.2909999 1.382 1.233 15
6.2259998 1.372 1.324 14
6.1810002 1.367 1.419 24
0 0 0 50
6.2969999 1.331 1.022 16
6.303 1.335 1.126 13
6.3130002 1.341 1.2309999 20
6.2140002 1.323 1.316 11
6.2270002 1.331 1.423 12
6.3569999 1.295 0.92400002 13
6.3629999 1.299 1.027 15
6.4169998 1.312 1.14 7
6.3579998 1.303 1.234 7
0 0 0 50
6.2950001 1.298 1.432 10
6.369 1.252 0.921 12
6.3579998 1.251 1.021 14
9.4879999 1.8710001 1.678 55
6.3540001 1.256 1.228 3
6.3909998 1.267 1.341 1
9.3990002 1.869 2.1289999 58
6.447 1.22 0.92699999 12
9.6169996 1.823 1.5369999 52
9.585 1.819 1.686 54
9.5629997 1.819 1.839 56
9.5229998 1.816 1.989 56
