# .PCD v0.7 - Point Cloud Data file format
VERSION 0.7
FIELDS x y z intensity
SIZE 4 4 4 4
TYPE F F F F
COUNT 1 1 1 1
WIDTH 1833
HEIGHT 1
VIEWPOINT 0 0 0 1 0 0 0
POINTS 1833
DATA ascii
0 0 0 0
12.551 0.154 2.1789999 33
12.496 0.171 2.368 123
12.445 0.18799999 2.5580001 118
12.387 0.206 2.7479999 113
10.277 0.186 1.462 1
0 0 0 0
12.563 0.26300001 2.181 23
12.529 0.28 2.375 134
12.481 0.29699999 2.566 87
12.422 0.31299999 2.7550001 68
10.288 0.27500001 1.464 1
12.222 0.345 1.929 8
12.482 0.36899999 2.1670001 93
12.443 0.38600001 2.358 70
12.397 0.403 2.549 24
12.34 0.419 2.737 22
10.303 0.36700001 1.466 1
11.425 0.42199999 1.803 1
12.699 0.48800001 2.204 1
12.84 0.51099998 2.4330001 5
12.932 0.53299999 2.6589999 7
12.895 0.551 2.8610001 11
10.342 0.45899999 1.471 1
11.42 0.523 1.802 1
12.813 0.60399997 2.224 1
13.099 0.63599998 2.4820001 8
13.043 0.65200001 2.681 7
12.988 0.66900003 2.881 7
10.363 0.551 1.473 1
11.486 0.62699997 1.812 1
0 0 0 50
13.167 0.755 2.4949999 8
13.105 0.77100003 2.694 8
13.044 0.78600001 2.8940001 8
10.38 0.64300001 1.476 1
11.565 0.73199999 1.824 2
12.917 0.83499998 2.2409999 1
13.232 0.87400001 2.507 9
13.169 0.889 2.707 8
11.428 0.78799999 2.5350001 5
8.3719997 0.59100002 1.1900001 0
8.3400002 0.60000002 1.3150001 1
11.5 0.84399998 1.995 61
11.44 0.85500002 2.1670001 58
11.377 0.86699998 2.339 54
11.313 0.87800002 2.51 54
8.3129997 0.65899998 1.181 57
8.3450003 0.67299998 1.316 32
11.329 0.92900002 1.965 59
11.279 0.94199997 2.1359999 56
11.217 0.95200002 2.306 52
11.148 0.96200001 2.473 54
8.2819996 0.73000002 1.176 79
8.2089996 0.73400003 1.294 91
11.16 1.0140001 1.936 57
11.109 1.024 2.1040001 55
11.047 1.034 2.27 51
10.993 1.045 2.4389999 53
8.2589998 0.79900002 1.1720001 91
8.1829996 0.80299997 1.289 96
8.1190004 0.80800003 1.408 108
10.957 1.105 2.075 54
10.897 1.114 2.24 52
10.836 1.124 2.404 55
0 0 0 50
8.1739998 0.87300003 1.2869999 97
8.1120005 0.87699997 1.406 91
10.801 1.183 2.0450001 54
10.74 1.192 2.207 52
10.682 1.201 2.3699999 53
8.2189999 0.93800002 1.165 94
8.1619997 0.94199997 1.285 99
8.1020002 0.94599998 1.404 96
10.65 1.2589999 2.016 54
10.592 1.267 2.177 52
10.536 1.276 2.3380001 53
8.2110004 1.0089999 1.164 96
8.1540003 1.012 1.284 99
8.0950003 1.016 1.403 96
8.6829996 1.102 1.6440001 0
10.439 1.34 2.145 51
10.39 1.349 2.3050001 52
8.21 1.081 1.163 88
8.1490002 1.0829999 1.2819999 97
8.0819998 1.085 1.4 92
10.336 1.402 1.957 49
10.306 1.413 2.118 52
10.26 1.421 2.277 55
8.3039999 1.166 1.176 35
8.1820002 1.159 1.2869999 49
8.085 1.156 1.4 93
8.0970001 1.169 1.533 13
10.179 1.484 2.092 57
10.133 1.492 2.2490001 57
8.7130003 1.299 1.233 0
8.3039999 1.249 1.306 17
8.1450005 1.235 1.411 39
8.0550003 1.233 1.525 85
10.052 1.553 2.066 56
9.9989996 1.5599999 2.22 57
8.7390003 1.3789999 1.2359999 0
0 0 0 50
9.9449997 1.595 1.722 46
8.1599998 1.3200001 1.545 27
8.0530005 1.314 1.655 32
9.8760004 1.626 2.1930001 60
9.9689999 1.661 1.41 20
9.9280005 1.666 1.561 66
9.8809996 1.671 1.711 61
9.835 1.677 1.862 60
8.3299999 1.432 1.7130001 10
9.7340002 1.689 2.1619999 56
9.8549995 1.729 1.393 48
9.7930002 1.73 1.539 66
9.75 1.734 1.689 61
9.7060003 1.739 1.8380001 61
9.665 1.7460001 1.988 56
9.6169996 1.752 2.1370001 56
9.7139997 1.788 1.373 53
9.6780005 1.793 1.521 67
9.632 1.7970001 1.668 62
9.5860004 1.802 1.8150001 60
9.5380001 1.807 1.962 57
9.4969997 1.813 2.1110001 56
6.421 1.238 0.90700001 16
6.3499999 1.232 0.99800003 16
9.5190001 1.859 1.649 63
6.3860002 1.255 1.209 1
6.3800001 1.2640001 1.313 3
9.3979998 1.876 2.0899999 57
6.388 1.2869999 0.90200001 14
6.3260002 1.2819999 0.99400002 20
6.4419999 1.314 1.1160001 5
6.3530002 1.3049999 1.204 1
6.2940001 1.301 1.296 13
6.2389998 1.3 1.388 8
6.2979999 1.324 0.889 26
6.329 1.3380001 0.995 16
6.348 1.35 1.1 25
6.3179998 1.352 1.197 16
6.2740002 1.352 1.2920001 18
6.2600002 1.359 1.3940001 23
6.336 1.387 0.89499998 15
6.3070002 1.388 0.991 19
0 0 0 50
6.3099999 1.405 1.196 18
6.2639999 1.404 1.291 13
6.2020001 1.4 1.381 13
6.3000002 1.434 0.88999999 19
6.3429999 1.45 0.99699998 14
6.3299999 1.456 1.097 8
6.3150001 1.46 1.198 13
6.2519999 1.455 1.289 17
6.2849998 1.473 1.401 3
6.303 1.489 0.88999999 19
8.9919996 2.1359999 1.414 69
8.9549999 2.1370001 1.553 64
6.302 1.513 1.196 12
6.29 1.5190001 1.298 1
6.2750001 1.525 1.4 6
8.9259996 2.187 1.261 74
8.8830004 2.1860001 1.398 70
8.8540001 2.1900001 1.5369999 65
8.8199997 2.194 1.676 63
8.7799997 2.197 1.814 58
8.7370005 2.2 1.951 57
8.8330002 2.2409999 1.248 74
8.7980003 2.2420001 1.385 72
8.7580004 2.2420001 1.521 66
8.7229996 2.2449999 1.658 63
8.6850004 2.2490001 1.796 60
8.6470003 2.253 1.933 58
8.7309999 2.29 1.234 72
8.6969995 2.2920001 1.37 74
8.6669998 2.2939999 1.507 67
0 0 0 50
8.5869999 2.2980001 1.777 58
8.5530005 2.303 1.915 56
8.6330004 2.339 1.222 73
8.5979996 2.3399999 1.355 76
8.5629997 2.3410001 1.49 67
8.5310001 2.3440001 1.625 64
8.493 2.346 1.76 59
8.4650002 2.352 1.897 57
8.5439997 2.3900001 1.21 76
8.5139999 2.391 1.344 78
8.474 2.3900001 1.476 66
8.4420004 2.392 1.61 64
8.4060001 2.3940001 1.744 61
8.3610001 2.395 1.876 56
8.448 2.4349999 1.197 75
8.4139996 2.434 1.329 78
8.3760004 2.434 1.461 66
8.3439999 2.4360001 1.594 65
8.3109999 2.4389999 1.727 58
8.2819996 2.444 1.8609999 55
8.3620005 2.4809999 1.186 76
8.3240004 2.4790001 1.316 81
8.29 2.4790001 1.448 73
8.2609997 2.4820001 1.58 69
8.2220001 2.4820001 1.711 64
0 0 0 50
8.2650003 2.5220001 1.174 84
8.2349997 2.523 1.3049999 83
8.2060003 2.5239999 1.4349999 73
8.1709995 2.5239999 1.5650001 69
8.1359997 2.526 1.696 65
8.099 2.527 1.826 64
8.1780005 2.5650001 1.164 83
8.158 2.5669999 1.294 81
8.1210003 2.5650001 1.423 73
8.085 2.5650001 1.552 70
8.0539999 2.5680001 1.682 66
8.0129995 2.5680001 1.811 64
8.0930004 2.6059999 1.153 85
8.0649996 2.6059999 1.2819999 84
8.033 2.605 1.41 77
8 2.6059999 1.538 71
7.9699998 2.608 1.668 67
7.9419999 2.612 1.798 65
8.026 2.652 1.146 87
7.9910002 2.6489999 1.272 83
7.9510002 2.645 1.398 74
7.927 2.648 1.528 70
7.8920002 2.6489999 1.655 65
0 0 0 50
7.9450002 2.691 1.137 85
7.915 2.6900001 1.263 85
7.8829999 2.688 1.39 75
7.8470001 2.687 1.515 72
7.8169999 2.6889999 1.643 68
7.789 2.6930001 1.771 64
7.8649998 2.73 1.128 86
7.835 2.7279999 1.253 85
7.802 2.7260001 1.378 75
7.777 2.7279999 1.506 72
7.743 2.7279999 1.632 69
7.7129998 2.7309999 1.758 65
7.7909999 2.7690001 1.12 84
7.756 2.7639999 1.244 83
7.7340002 2.766 1.37 76
7.698 2.7639999 1.494 73
0 0 0 50
7.6389999 2.7679999 1.7460001 66
7.7129998 2.8039999 1.112 83
7.6880002 2.803 1.2359999 84
7.6560001 2.8010001 1.36 74
7.631 2.803 1.485 73
7.598 2.803 1.609 66
7.5669999 2.8050001 1.735 63
7.6440001 2.842 1.105 84
7.6209998 2.8410001 1.229 83
7.5910001 2.839 1.352 76
7.5539999 2.836 1.474 72
0 0 0 50
7.4990001 2.842 1.724 64
7.5710001 2.8759999 1.098 85
7.5500002 2.8759999 1.222 84
7.5159998 2.872 1.3430001 75
7.4949999 2.875 1.4680001 73
7.4640002 2.875 1.591 67
7.4330001 2.8770001 1.714 65
7.5009999 2.9100001 1.092 83
0 0 0 50
7.4530001 2.908 1.337 76
7.4260001 2.908 1.459 73
7.3920002 2.908 1.581 68
7.3649998 2.911 1.704 66
7.4320002 2.9430001 1.086 80
7.4089999 2.941 1.207 81
7.381 2.9389999 1.3279999 74
7.355 2.9400001 1.45 72
7.3309999 2.9419999 1.573 68
0 0 0 50
7.368 2.9749999 1.081 81
7.3449998 2.973 1.201 81
7.3150001 2.97 1.321 72
7.2919998 2.9719999 1.443 70
7.2610002 2.971 1.564 65
7.2329998 2.973 1.686 62
7.3060002 3.006 1.076 81
0 0 0 50
7.25 3 1.3150001 73
7.23 3.003 1.436 71
7.1989999 3.003 1.557 64
7.1700001 3.0050001 1.677 62
7.2449999 3.0380001 1.072 81
7.2220001 3.036 1.191 81
7.1939998 3.033 1.3099999 73
7.165 3.0320001 1.4299999 71
7.1399999 3.0339999 1.55 65
7.1090002 3.0350001 1.67 62
7.1849999 3.0669999 1.068 81
0 0 0 50
7.1370001 3.063 1.306 74
7.1100001 3.063 1.424 70
7.0879998 3.066 1.545 66
7.0570002 3.066 1.665 66
7.1259999 3.095 1.0650001 85
7.1040001 3.0929999 1.183 80
7.066 3.086 1.299 75
7.0580001 3.0929999 1.42 72
0 0 0 50
6.9819999 3.0869999 1.654 65
7.0749998 3.125 1.063 83
7.0479999 3.1210001 1.179 82
7.013 3.115 1.295 81
6.9949999 3.118 1.414 74
6.9569998 3.1140001 1.53 72
6.9349999 3.119 1.65 69
7.0180001 3.151 1.0599999 86
0 0 0 50
6.9679999 3.1459999 1.293 83
6.9369998 3.1429999 1.41 75
6.9120002 3.1440001 1.528 71
6.881 3.1440001 1.645 69
6.9710002 3.1789999 1.058 84
6.941 3.1730001 1.174 86
6.921 3.174 1.291 82
6.8930001 3.1719999 1.4069999 76
0 0 0 50
6.8369999 3.174 1.642 69
6.9169998 3.2030001 1.057 84
6.8940001 3.2 1.1720001 84
6.8720002 3.2 1.289 82
6.8439999 3.198 1.405 76
6.8140001 3.197 1.521 73
6.7930002 3.201 1.64 69
6.8699999 3.2279999 1.056 84
6.848 3.2260001 1.171 86
6.8150001 3.2190001 1.285 80
0 0 0 50
6.7659998 3.221 1.518 72
6.7329998 3.22 1.633 68
6.8210001 3.2509999 1.0549999 80
6.7979999 3.247 1.169 84
6.7719998 3.244 1.284 81
6.7480001 3.244 1.4 78
6.7189999 3.243 1.515 72
6.6950002 3.247 1.632 69
6.776 3.273 1.0549999 82
6.7490001 3.2679999 1.168 83
6.7259998 3.266 1.283 83
0 0 0 50
6.6750002 3.266 1.513 75
6.6490002 3.2690001 1.63 70
6.7340002 3.2950001 1.0549999 82
6.7080002 3.29 1.168 83
6.6820002 3.2869999 1.2819999 82
6.6539998 3.2850001 1.396 74
6.6279998 3.2850001 1.511 72
6.605 3.29 1.627 70
6.6960001 3.3180001 1.056 82
6.665 3.3099999 1.168 82
6.6399999 3.3069999 1.2819999 81
6.6139998 3.306 1.396 76
6.5910001 3.3080001 1.511 72
6.5669999 3.3110001 1.627 68
6.651 3.3340001 1.056 80
0 0 0 50
6.605 3.329 1.283 83
6.5799999 3.3280001 1.397 76
6.5489998 3.326 1.51 77
6.5190001 3.3269999 1.624 75
6.612 3.352 1.058 89
6.5910001 3.3499999 1.17 86
6.5669999 3.348 1.283 88
6.5440001 3.348 1.397 83
6.5170002 3.3469999 1.511 76
6.4879999 3.349 1.625 77
0 0 0 50
6.553 3.3659999 1.171 85
6.5289998 3.3640001 1.284 84
6.5100002 3.3659999 1.398 82
6.4790001 3.3640001 1.511 76
6.4520001 3.3659999 1.625 75
6.5440001 3.388 1.062 88
6.527 3.3870001 1.174 86
0 0 0 50
6.4720001 3.381 1.398 81
6.4489999 3.3829999 1.513 76
6.421 3.3840001 1.626 75
6.5120001 3.4030001 1.064 87
6.4910002 3.401 1.176 85
6.467 3.3989999 1.288 85
6.4429998 3.398 1.401 80
6.4169998 3.3989999 1.5140001 75
6.3860002 3.3989999 1.626 76
6.48 3.4170001 1.067 83
0 0 0 50
6.434 3.4119999 1.29 84
6.415 3.415 1.403 78
6.3850002 3.4130001 1.515 75
6.3530002 3.4130001 1.627 75
6.4520001 3.4319999 1.0700001 84
6.4289999 3.428 1.181 83
6.402 3.424 1.291 82
6.381 3.4260001 1.404 80
6.3579998 3.428 1.517 74
6.329 3.4289999 1.63 74
6.428 3.4460001 1.073 82
6.402 3.4400001 1.183 82
6.3790002 3.4389999 1.295 81
0 0 0 50
6.329 3.4400001 1.5190001 74
6.2979999 3.4400001 1.631 74
6.3979998 3.4549999 1.076 81
6.3740001 3.451 1.186 81
6.3530002 3.45 1.298 79
6.3270001 3.4489999 1.409 78
6.3060002 3.4530001 1.522 72
6.2750001 3.4530001 1.6339999 74
6.3790002 3.4679999 1.08 81
6.3569999 3.4649999 1.191 78
6.3270001 3.4590001 1.3 80
6.3099999 3.4630001 1.413 84
0 0 0 50
6.2529998 3.4649999 1.637 80
6.3569999 3.477 1.084 84
6.335 3.474 1.194 81
6.3119998 3.473 1.3049999 86
6.2909999 3.4749999 1.418 83
6.263 3.4749999 1.529 79
6.2309999 3.4749999 1.64 80
6.3390002 3.487 1.089 85
6.3140001 3.4820001 1.198 81
6.2849998 3.4779999 1.308 85
6.2670002 3.4809999 1.42 82
0 0 0 50
6.2140002 3.4849999 1.6440001 79
6.3200002 3.494 1.0930001 84
6.2979999 3.4909999 1.2029999 79
6.2740002 3.4890001 1.313 84
6.25 3.4890001 1.424 80
6.2270002 3.4920001 1.5369999 78
6.1960001 3.493 1.648 79
6.3070002 3.5020001 1.098 83
6.283 3.4979999 1.2079999 82
6.257 3.4949999 1.317 79
6.2350001 3.497 1.429 82
0 0 0 50
6.1859999 3.503 1.654 84
6.289 3.5050001 1.102 81
6.276 3.507 1.2130001 80
6.243 3.5009999 1.322 80
6.2249999 3.5050001 1.434 81
6.1939998 3.5039999 1.544 77
6.1659999 3.506 1.656 77
6.2810001 3.5120001 1.108 81
6.2690001 3.5150001 1.219 82
6.2329998 3.506 1.327 80
6.2090001 3.507 1.437 81
0 0 0 50
6.1599998 3.5139999 1.6619999 78
6.2709999 3.516 1.113 79
6.2449999 3.5109999 1.221 76
6.224 3.5109999 1.332 80
6.204 3.5139999 1.444 81
6.1719999 3.5120001 1.553 77
6.1409998 3.513 1.664 74
6.263 3.5179999 1.118 80
6.2410002 3.516 1.227 75
0 0 0 50
6.1960001 3.517 1.449 79
6.1659999 3.516 1.559 77
6.1370001 3.5179999 1.671 75
6.2610002 3.5209999 1.123 80
6.2360001 3.5179999 1.233 76
6.2129998 3.517 1.3430001 80
6.1890001 3.5179999 1.4529999 80
6.1599998 3.5179999 1.564 76
6.131 3.52 1.675 75
6.257 3.5220001 1.1289999 79
6.2360001 3.52 1.238 76
6.211 3.5190001 1.348 80
6.184 3.5179999 1.4579999 79
0 0 0 50
6.1259999 3.5209999 1.681 75
6.256 3.5220001 1.1339999 79
6.2309999 3.5190001 1.243 76
6.2030001 3.5150001 1.353 79
6.1810002 3.5179999 1.464 78
6.1550002 3.52 1.575 76
6.1259999 3.5220001 1.687 75
6.2550001 3.52 1.14 79
6.2309999 3.517 1.249 76
0 0 0 50
6.1859999 3.5190001 1.47 80
6.1490002 3.5150001 1.579 75
6.1290002 3.523 1.693 81
6.2550001 3.517 1.1440001 82
6.2319999 3.5139999 1.2539999 76
6.2119999 3.516 1.365 78
6.1880002 3.517 1.476 80
6.1599998 3.5179999 1.587 76
6.1290002 3.52 1.699 82
6.2620001 3.5150001 1.151 80
6.244 3.516 1.261 76
6.2160001 3.5120001 1.3710001 77
6.1900001 3.513 1.4809999 79
6.1599998 3.513 1.592 75
6.1279998 3.5139999 1.7029999 76
0 0 0 50
6.2480001 3.51 1.266 76
6.2220001 3.5079999 1.376 80
6.1989999 3.5109999 1.488 81
6.1690001 3.5109999 1.599 76
6.1399999 3.5139999 1.711 74
6.277 3.506 1.1619999 78
6.2579999 3.506 1.272 78
6.2309999 3.5039999 1.382 80
6.2069998 3.5050001 1.494 83
0 0 0 50
6.1479998 3.5090001 1.717 78
6.289 3.5009999 1.1670001 82
6.2680001 3.5 1.278 79
6.2399998 3.497 1.388 79
6.2150002 3.4979999 1.499 81
6.1830001 3.4979999 1.61 77
6.1550002 3.5020001 1.723 78
6.302 3.494 1.173 82
6.2800002 3.4920001 1.284 78
6.2480001 3.487 1.392 79
6.2220001 3.4879999 1.5039999 82
6.1999998 3.493 1.617 74
6.1680002 3.4949999 1.729 72
6.322 3.4890001 1.179 76
6.296 3.4860001 1.289 76
6.2680001 3.483 1.4 78
6.2420001 3.483 1.511 76
6.2119999 3.484 1.623 74
6.1830001 3.4879999 1.7359999 74
6.335 3.4779999 1.1849999 77
6.3169999 3.4790001 1.296 78
0 0 0 50
6.257 3.474 1.517 77
6.2290001 3.4760001 1.63 74
6.1989999 3.4790001 1.742 75
6.3520002 3.4679999 1.1900001 74
6.3299999 3.467 1.301 77
6.3070002 3.467 1.4119999 78
6.2729998 3.4630001 1.523 77
6.2449999 3.4649999 1.635 74
6.217 3.4690001 1.748 75
6.3709998 3.4560001 1.1950001 78
6.3470001 3.454 1.306 78
6.3260002 3.4549999 1.418 78
0 0 0 50
6.2680001 3.4560001 1.642 76
6.2309999 3.4549999 1.753 75
6.4000001 3.448 1.201 77
6.375 3.4449999 1.312 79
6.349 3.444 1.424 80
6.316 3.441 1.535 80
6.2909999 3.4449999 1.649 78
6.2620001 3.448 1.762 75
6.427 3.437 1.207 80
6.3969998 3.431 1.317 80
6.3649998 3.427 1.428 81
6.3439999 3.431 1.5420001 79
6.3119998 3.431 1.654 79
6.2820001 3.434 1.768 77
6.4450002 3.4189999 1.21 78
6.4299998 3.4219999 1.324 80
6.3990002 3.418 1.4349999 82
6.3730001 3.4189999 1.548 79
6.3400002 3.418 1.66 78
6.3140001 3.4230001 1.776 78
6.4770002 3.4070001 1.216 80
6.4499998 3.4030001 1.3279999 82
6.4260001 3.4030001 1.441 81
6.3979998 3.4030001 1.554 80
6.368 3.4030001 1.6670001 77
6.348 3.4119999 1.784 82
6.507 3.391 1.221 82
6.4809999 3.388 1.3329999 82
6.4559999 3.3870001 1.446 82
6.4260001 3.3859999 1.559 79
6.3959999 3.3870001 1.673 78
6.3730001 3.3929999 1.789 76
6.5370002 3.3740001 1.226 81
6.5139999 3.372 1.339 81
6.4889998 3.3710001 1.452 83
6.4629998 3.3729999 1.566 80
0 0 0 50
6.3990002 3.3740001 1.794 79
6.579 3.3610001 1.232 80
6.552 3.358 1.345 82
6.5209999 3.3540001 1.457 82
6.4920001 3.3540001 1.571 83
6.4619999 3.3540001 1.6849999 79
6.4299998 3.3559999 1.8 78
6.6100001 3.3410001 1.2359999 82
6.5830002 3.3380001 1.349 83
0 0 0 50
6.526 3.3340001 1.576 83
6.4920001 3.3329999 1.6900001 80
6.4619999 3.336 1.806 79
6.6459999 3.3210001 1.24 80
6.6230001 3.3199999 1.354 82
6.5890002 3.3150001 1.467 83
6.5640001 3.316 1.582 83
6.5380001 3.319 1.698 83
6.5029998 3.319 1.813 79
0 0 0 50
6.6539998 3.2969999 1.357 82
6.6259999 3.2939999 1.471 84
6.6009998 3.296 1.587 82
6.5749998 3.2980001 1.704 79
6.546 3.3010001 1.821 80
6.724 3.2809999 1.248 81
6.6989999 3.2780001 1.363 82
6.6659999 3.2739999 1.477 84
6.6399999 3.2739999 1.592 81
6.6149998 3.277 1.709 81
6.5879998 3.2809999 1.8279999 79
6.7709999 3.2620001 1.253 80
6.744 3.2579999 1.368 79
6.7140002 3.2550001 1.483 85
6.6810002 3.2520001 1.598 83
6.6570001 3.2550001 1.716 81
0 0 0 50
6.816 3.24 1.258 80
6.783 3.233 1.372 83
6.7509999 3.23 1.4859999 82
6.7309999 3.2320001 1.604 84
6.704 3.234 1.722 83
6.6750002 3.237 1.84 80
6.8530002 3.2119999 1.26 81
6.8340001 3.2130001 1.377 83
6.8049998 3.21 1.493 82
6.7789998 3.21 1.61 83
6.7490001 3.211 1.728 83
6.7189999 3.2130001 1.847 75
6.901 3.1889999 1.2640001 74
6.881 3.1889999 1.382 77
6.8509998 3.1849999 1.498 74
6.8270001 3.1860001 1.6160001 76
6.7969999 3.187 1.734 76
6.77 3.1900001 1.854 76
6.9559999 3.168 1.2690001 74
6.9299998 3.164 1.386 77
6.9000001 3.161 1.503 75
6.8670001 3.158 1.62 75
6.8429999 3.1600001 1.739 75
6.8049998 3.1589999 1.8559999 77
7.0009999 3.1400001 1.272 76
6.9770002 3.138 1.3890001 76
6.9439998 3.1329999 1.506 74
6.915 3.131 1.624 74
6.888 3.132 1.744 76
6.8639998 3.1370001 1.865 75
7.0510001 3.112 1.275 74
7.026 3.109 1.393 74
6.9949999 3.1059999 1.511 74
6.98 3.1099999 1.633 72
6.948 3.109 1.752 73
6.9099998 3.1070001 1.87 77
7.1030002 3.085 1.278 76
7.072 3.079 1.396 74
7.0630002 3.0840001 1.518 72
7.0279999 3.0799999 1.636 73
7.0040002 3.082 1.758 74
6.9720001 3.082 1.878 74
0 0 0 50
7.138 3.0550001 1.402 75
7.1129999 3.0539999 1.522 71
7.0840001 3.052 1.642 74
7.0580001 3.053 1.763 75
7.0310001 3.0550001 1.886 74
7.2150002 3.027 1.285 73
7.1929998 3.0250001 1.406 74
7.1680002 3.0239999 1.526 72
7.1490002 3.026 1.649 71
7.112 3.0220001 1.768 73
7.0799999 3.0220001 1.89 74
7.276 2.9979999 1.289 72
7.256 2.997 1.41 74
7.2319999 2.9949999 1.5319999 71
7.2059999 2.9949999 1.654 73
7.178 2.9949999 1.776 73
7.1459999 2.9949999 1.899 74
7.3460002 2.9719999 1.294 73
7.316 2.9660001 1.415 75
7.289 2.9630001 1.536 72
7.2670002 2.9630001 1.659 75
7.2410002 2.964 1.783 76
7.2140002 2.9660001 1.9069999 74
7.4050002 2.938 1.2970001 72
7.3769999 2.934 1.418 73
7.3540001 2.9319999 1.541 71
7.3270001 2.931 1.665 76
7.3070002 2.9330001 1.79 78
7.2750001 2.9330001 1.914 79
7.4710002 2.908 1.301 72
7.448 2.905 1.424 77
7.4169998 2.9000001 1.546 74
7.3959999 2.901 1.671 75
7.3709998 2.901 1.796 78
7.3410001 2.901 1.921 78
0 0 0 50
7.5079999 2.8699999 1.427 76
7.4809999 2.8670001 1.551 74
7.4580002 2.8659999 1.676 75
7.4349999 2.8670001 1.802 78
7.4120002 2.869 1.929 83
7.6040001 2.8410001 1.308 76
7.5760002 2.836 1.432 76
7.5560002 2.835 1.558 75
7.5229998 2.8310001 1.682 75
7.5029998 2.8329999 1.809 76
7.4790001 2.835 1.937 82
7.6729999 2.8069999 1.312 75
7.6459999 2.802 1.437 76
7.6199999 2.799 1.562 75
7.599 2.799 1.689 76
7.572 2.7969999 1.8150001 77
7.5479999 2.799 1.944 77
7.7459998 2.7720001 1.316 74
7.724 2.7690001 1.442 77
7.6900001 2.7620001 1.567 76
7.6680002 2.7620001 1.694 78
7.6399999 2.76 1.822 77
7.6139998 2.7609999 1.95 80
7.8140001 2.734 1.319 75
7.79 2.73 1.446 76
7.7639999 2.7260001 1.572 76
0 0 0 50
7.7140002 2.724 1.829 81
7.6849999 2.7219999 1.9579999 80
7.8940001 2.6989999 1.324 76
7.8649998 2.6930001 1.451 77
7.8379998 2.688 1.5779999 76
7.8140001 2.6860001 1.707 76
7.7930002 2.687 1.837 80
7.763 2.6849999 1.967 80
7.974 2.6619999 1.329 76
7.9429998 2.655 1.456 77
7.9099998 2.648 1.5829999 72
7.8889999 2.6470001 1.7130001 75
7.8579998 2.6440001 1.842 78
7.829 2.642 1.973 78
8.0340004 2.6159999 1.33 66
8.0100002 2.612 1.459 69
7.9850001 2.6070001 1.5880001 69
7.961 2.605 1.719 71
7.9369998 2.6029999 1.85 70
7.9159999 2.6040001 1.983 71
8.1129999 2.576 1.334 67
8.0889997 2.5710001 1.464 66
8.0679998 2.5680001 1.595 67
8.0419998 2.5650001 1.726 71
8.0270004 2.566 1.8609999 69
7.9949999 2.563 1.992 69
8.1969995 2.536 1.339 65
8.1739998 2.5309999 1.47 66
8.1549997 2.529 1.602 66
8.1269999 2.5250001 1.734 68
8.1000004 2.5220001 1.867 68
8.0839996 2.5239999 2.003 72
8.2930002 2.4979999 1.346 63
8.2659998 2.4920001 1.477 65
8.2390003 2.4860001 1.609 66
8.2200003 2.4849999 1.743 67
8.1879997 2.4809999 1.877 67
8.1610003 2.4790001 2.0109999 68
8.3730001 2.454 1.349 64
0 0 0 50
8.3249998 2.444 1.6160001 65
8.3039999 2.441 1.751 69
8.2819996 2.4389999 1.887 69
8.25 2.4360001 2.0220001 67
8.46 2.4100001 1.354 64
8.4429998 2.4059999 1.489 65
8.4169998 2.401 1.624 66
8.3929996 2.3970001 1.76 70
8.3699999 2.395 1.897 68
8.3389997 2.392 2.033 70
8.5530005 2.368 1.36 64
8.5299997 2.362 1.4960001 66
8.5030003 2.355 1.631 66
8.4759998 2.3499999 1.767 67
8.4549999 2.348 1.905 68
8.4350004 2.3469999 2.0450001 69
8.6440001 2.322 1.3660001 62
8.6190004 2.3150001 1.502 65
8.6009998 2.312 1.64 66
8.5839996 2.309 1.78 69
8.5539999 2.3039999 1.9170001 70
8.5270004 2.3010001 2.056 72
8.7390003 2.276 1.372 62
8.7110004 2.2679999 1.5089999 67
8.6949997 2.2639999 1.648 67
8.6719999 2.26 1.788 69
8.6429996 2.2550001 1.926 69
8.6289997 2.2539999 2.0699999 75
0 0 0 50
8.8050003 2.2190001 1.516 62
8.7840004 2.214 1.656 66
8.7600002 2.21 1.796 67
8.7360001 2.2060001 1.937 68
8.7119999 2.2030001 2.079 69
8.9250002 2.178 1.3839999 60
8.9049997 2.171 1.524 61
6.3010001 1.536 1.181 1
6.3080001 1.538 1.286 0
6.2839999 1.534 1.386 1
8.8079996 2.1530001 2.092 69
9.0299997 2.1300001 1.391 53
6.3210001 1.489 1.075 1
6.375 1.502 1.188 17
6.3239999 1.49 1.283 15
6.2729998 1.478 1.377 6
6.2579999 1.475 1.478 20
6.3330002 1.441 0.97000003 19
6.355 1.444 1.075 16
6.3150001 1.434 1.171 17
6.2449999 1.418 1.26 19
6.164 1.4 1.346 17
6.2179999 1.413 1.462 20
6.3410001 1.391 0.96499997 18
6.3369999 1.388 1.066 20
6.2919998 1.377 1.16 19
6.2880001 1.375 1.262 44
6.2319999 1.363 1.354 17
6.1599998 1.347 1.441 27
6.316 1.3329999 0.95599997 19
6.3280001 1.334 1.059 14
6.3179998 1.33 1.159 7
6.3940001 1.345 1.277 13
6.2709999 1.318 1.3559999 8
6.223 1.308 1.45 16
6.402 1.299 0.963 18
6.3899999 1.294 1.063 15
6.3660002 1.2869999 1.1619999 4
6.3340001 1.279 1.2589999 16
6.3280001 1.277 1.362 7
6.336 1.278 1.469 5
6.3660002 1.239 0.95300001 14
6.3699999 1.237 1.0549999 0
6.3759999 1.2359999 1.158 1
9.5089998 1.841 1.882 58
9.4860001 1.834 2.033 66
9.4580002 1.827 2.184 69
6.4889998 1.209 0.96600002 1
9.6549997 1.795 1.591 59
9.632 1.7869999 1.7410001 64
9.6140003 1.78 1.8940001 66
9.5909996 1.773 2.046 64
9.5640001 1.767 2.1989999 67
9.7950001 1.7460001 1.451 60
9.7729998 1.737 1.602 52
9.7399998 1.726 1.753 55
9.7360001 1.722 1.909 59
9.7080002 1.7130001 2.063 58
9.6920004 1.7079999 2.2190001 56
9.9169998 1.687 1.462 54
0 0 0 50
9.8739996 1.668 1.7690001 55
0 0 0 0
9.7790003 1.6440001 2.069 42
9.816 1.647 2.2390001 57
10.032 1.623 1.471 43
10.012 1.614 1.627 53
8.2840004 1.331 1.478 14
8.0640001 1.2920001 1.569 48
9.9619999 1.591 2.0999999 58
9.9469995 1.584 2.2609999 56
10.144 1.559 1.4809999 8
8.3260002 1.274 1.347 18
8.1230001 1.238 1.443 41
8.0600004 1.224 1.562 76
10.096 1.528 2.1210001 60
10.067 1.5190001 2.28 57
8.375 1.219 1.2180001 22
8.1859999 1.1849999 1.319 38
8.0740004 1.163 1.429 83
10.246 1.471 1.979 58
10.22 1.461 2.1400001 59
10.21 1.454 2.3050001 57
8.2489996 1.133 1.194 37
8.1350002 1.1109999 1.306 88
8.0830002 1.098 1.426 87
10.37 1.402 1.9960001 57
10.344 1.392 2.1589999 58
10.329 1.383 2.325 57
8.1990004 1.059 1.183 85
8.1470003 1.046 1.303 90
8.0889997 1.033 1.4220001 86
10.5 1.3329999 2.0150001 56
10.479 1.323 2.1800001 58
10.463 1.314 2.348 57
0 0 0 50
8.1549997 0.98000002 1.3 92
8.1029997 0.96700001 1.42 88
10.642 1.262 2.036 58
10.622 1.252 2.204 59
10.608 1.243 2.3740001 57
8.2200003 0.92900002 1.178 83
8.1630001 0.91500002 1.2970001 90
8.1160002 0.90200001 1.418 84
10.775 1.189 2.0550001 57
10.753 1.178 2.2249999 58
10.735 1.168 2.3970001 57
8.2399998 0.86299998 1.177 83
8.1750002 0.84899998 1.296 88
8.1160002 0.83600003 1.415 102
10.935 1.1160001 2.0810001 56
10.918 1.105 2.2539999 57
10.906 1.094 2.4289999 56
8.2580004 0.79900002 1.176 78
8.1920004 0.78399998 1.295 88
0 0 0 0
11.081 1.039 2.1040001 56
11.066 1.027 2.28 55
11.05 1.015 2.4560001 56
8.2869997 0.73400003 1.177 68
8.2159996 0.71899998 1.296 79
11.254 0.97299999 1.9529999 57
11.237 0.96100003 2.1289999 57
11.22 0.94800001 2.3069999 57
11.202 0.93599999 2.4849999 56
8.3219995 0.66900003 1.1799999 40
8.3170004 0.66000003 1.309 35
11.409 0.89300001 1.976 59
11.401 0.88 2.1559999 59
11.379 0.86699998 2.335 58
11.365 0.85399997 2.5179999 18
8.3620005 0.60500002 1.183 6
11.508 0.81999999 1.808 6
12.789 0.89600003 2.211 1
13.255 0.91399997 2.503 8
0 0 0 50
11.413 0.76200002 2.5250001 3
10.293 0.66100001 1.454 1
11.418 0.72000003 1.791 1
12.76 0.78899997 2.2030001 1
13.196 0.801 2.4890001 9
13.117 0.78200001 2.6849999 8
13.037 0.76200002 2.881 6
10.255 0.57599998 1.446 1
11.38 0.625 1.783 1
12.682 0.68099999 2.187 1
13.138 0.69 2.4749999 9
13.068 0.671 2.6719999 8
12.982 0.64999998 2.8659999 8
10.24 0.49200001 1.443 1
11.309 0.52899998 1.77 1
12.632 0.57499999 2.177 1
13.088 0.579 2.464 9
12.981 0.55900002 2.6530001 4
12.81 0.53399998 2.826 5
10.193 0.40700001 1.4349999 1
11.268 0.435 1.762 1
12.424 0.46399999 2.1389999 4
12.699 0.45699999 2.3889999 7
12.593 0.43599999 2.572 8
12.337 0.41100001 2.72 30
10.162 0.324 1.4299999 1
11.28 0.34400001 1.7640001 1
12.489 0.36399999 2.1500001 87
12.442 0.34599999 2.3399999 66
12.422 0.32699999 2.536 63
12.423 0.31099999 2.7390001 78
10.148 0.241 1.428 1
11.224 0.25099999 1.755 1
12.566 0.264 2.1630001 17
12.527 0.24600001 2.3559999 116
12.457 0.227 2.543 119
12.392 0.208 2.7320001 116
10.126 0.16 1.425 1
11.181 0.16 1.748 1
12.549 0.162 2.1600001 25
12.504 0.14300001 2.352 126
12.443 0.123 2.5409999 125
12.386 0.104 2.7309999 118
10.121 0.078000002 1.425 1
11.145 0.07 1.743 1
12.552 0.059999999 2.161 16
12.512 0.041000001 2.3540001 121
0 0 0 50
12.411 0.003 2.7379999 112
10.111 -0.0020000001 1.424 1
11.144 -0.018999999 1.744 1
10.736 -0.035 1.85 1
10.573 -0.050999999 1.9910001 18
10.566 -0.068000004 2.1600001 15
12.472 -0.1 2.753 90
10.148 -0.083999999 1.431 1
11.126 -0.109 1.743 1
10.575 -0.12 1.824 39
10.472 -0.13600001 1.974 48
10.456 -0.153 2.1389999 45
10.599 -0.17299999 2.342 10
10.425 -0.169 1.472 5
10.718 -0.191 1.681 10
10.511 -0.204 1.8150001 48
10.427 -0.22 1.967 50
10.415 -0.237 2.1340001 47
10.495 -0.257 2.3210001 32
10.461 -0.25299999 1.479 5
10.661 -0.27500001 1.675 26
10.474 -0.289 1.811 49
0 0 0 50
10.386 -0.322 2.131 49
10.483 -0.34400001 2.322 36
10.266 -0.33000001 1.454 5
10.635 -0.36000001 1.673 33
10.454 -0.37200001 1.811 49
10.381 -0.38800001 1.965 97
10.375 -0.40599999 2.132 50
10.467 -0.42899999 2.322 32
10.448 -0.41999999 1.483 5
10.614 -0.44499999 1.674 33
10.453 -0.456 1.814 49
10.381 -0.472 1.9680001 53
10.386 -0.491 2.138 48
10.507 -0.51599997 2.335 18
10.445 -0.50300002 1.4859999 5
10.647 -0.53100002 1.683 17
10.488 -0.54299998 1.824 46
10.424 -0.55900002 1.9809999 47
10.44 -0.57999998 2.1530001 44
10.565 -0.60799998 2.3529999 5
10.45 -0.58700001 1.4910001 5
10.754 -0.62300003 1.704 5
10.561 -0.63200003 1.842 38
10.487 -0.64700001 1.997 41
10.53 -0.671 2.177 36
14.783 -0.97100002 3.3 52
10.35 -0.66399997 1.4809999 2
11.114 -0.73299998 1.766 1
10.65 -0.72299999 1.862 21
10.582 -0.73900002 2.02 28
15.028 -1.08 3.115 30
15.049 -1.113 3.3670001 32
10.081 -0.72600001 1.447 1
11.112 -0.82200003 1.771 1
0 0 0 50
13.878 -1.082 2.6570001 2
15.342 -1.229 3.188 31
15.346 -1.261 3.4419999 31
10.076 -0.80599999 1.451 1
11.173 -0.91600001 1.786 1
12.481 -1.048 2.1949999 1
13.027 -1.122 2.5020001 2
15.597 -1.376 3.2509999 29
15.616 -1.413 3.513 30
10.071 -0.88599998 1.456 1
11.153 -1.0039999 1.789 1
12.513 -1.152 2.2079999 1
12.852 -1.21 2.4760001 1
15.914 -1.534 3.3269999 29
15.93 -1.572 3.5940001 31
10.104 -0.96899998 1.466 1
11.197 -1.097 1.803 1
12.548 -1.256 2.2219999 1
13.882 -1.42 2.684 2
16.232 -1.696 3.404 34
16.26 -1.738 3.6800001 41
10.104 -1.05 1.472 1
11.213 -1.189 1.812 1
12.542 -1.3559999 2.2290001 1
13.973 -1.5420001 2.711 2
16.448 -1.854 3.4619999 5
16.591 -1.909 3.7679999 41
10.15 -1.135 1.4859999 1
11.242 -1.2819999 1.825 1
12.608 -1.465 2.2490001 1
14.214 -1.684 2.7679999 2
16.707001 -2.0179999 3.529 4
16.919001 -2.085 3.8559999 48
10.164 -1.217 1.494 1
11.285 -1.376 1.839 1
12.611 -1.566 2.2590001 1
14.24 -1.801 2.7839999 1
16.639 -2.1440001 3.5280001 2
17.284 -2.2709999 3.954 45
0 0 0 50
11.301 -1.467 1.85 1
12.637 -1.669 2.273 1
14.53 -1.9529999 2.852 2
16.464001 -2.2550001 3.5039999 4
17.658001 -2.4630001 4.0549998 46
10.219 -1.3839999 1.517 1
11.316 -1.558 1.8609999 1
12.697 -1.778 2.2939999 1
14.563 -2.075 2.8699999 1
16.427 -2.382 3.5109999 3
18.051001 -2.665 4.1609998 45
10.249 -1.4680001 1.529 1
11.361 -1.654 1.877 1
12.765 -1.8890001 2.3169999 1
14.637 -2.2019999 2.8970001 1
16.743 -2.562 3.5929999 3
0 0 0 0
10.263 -1.551 1.539 1
11.426 -1.7539999 1.897 1
12.834 -2.0009999 2.3399999 1
14.743 -2.336 2.9319999 1
16.599001 -2.674 3.5780001 5
19.914 -3.2609999 4.6290002 62
10.293 -1.636 1.552 1
11.43 -1.844 1.908 1
12.864 -2.108 2.3570001 1
14.912 -2.4809999 2.9790001 3
16.754 -2.8329999 3.6270001 3
19.917999 -3.4230001 4.6500001 69
10.316 -1.719 1.564 1
11.474 -1.9400001 1.925 1
12.916 -2.217 2.378 1
15.057 -2.6240001 3.0220001 2
17.648001 -3.1229999 3.8380001 4
20.049 -3.6070001 4.7010002 72
10.366 -1.808 1.58 1
11.524 -2.039 1.943 1
12.987 -2.3310001 2.4030001 1
14.809 -2.698 2.9860001 1
0 0 0 50
20.030001 -3.7650001 4.7179999 86
10.418 -1.899 1.597 1
11.544 -2.1329999 1.957 1
13.024 -2.441 2.4230001 1
14.917 -2.836 3.023 1
17.552999 -3.388 3.8540001 8
19.68 -3.8570001 4.6570001 13
10.457 -1.987 1.612 1
11.597 -2.234 1.977 1
13.098 -2.5580001 2.4489999 1
15.036 -2.9779999 3.063 1
17.229 -3.4630001 3.8010001 2
19.372 -3.9530001 4.6059999 51
9.415 -1.862 1.46 20
9.3380003 -1.8710001 1.601 35
13.178 -2.677 2.477 1
15.13 -3.1159999 3.098 1
17.375 -3.6300001 3.852 4
19.093 -4.0469999 4.5609999 50
9.2969999 -1.911 1.45 49
9.2589998 -1.927 1.596 52
9.3529997 -1.972 1.767 5
15.186 -3.2460001 3.125 1
17.513 -3.7969999 3.901 1
19.07 -4.1939998 4.5780001 92
9.2600002 -1.974 1.454 64
9.2259998 -1.992 1.6 61
9.3409996 -2.043 1.775 17
15.246 -3.3789999 3.154 1
18.906 -4.2470002 4.2340002 5
18.815001 -4.2880001 4.539 72
9.2390003 -2.0409999 1.459 67
9.2119999 -2.0599999 1.6059999 60
9.2880001 -2.1040001 1.774 2
15.497 -3.556 3.2219999 1
18.681 -4.3449998 4.2049999 10
18.607 -4.388 4.5110002 71
9.2189999 -2.1070001 1.465 58
9.2259998 -2.1340001 1.618 44
13.452 -3.1500001 2.5840001 1
15.463 -3.6670001 3.2320001 1
18.502001 -4.447 4.1849999 13
18.386 -4.48 4.4790001 68
9.2639999 -2.187 1.4809999 39
9.2919998 -2.22 1.6390001 31
13.527 -3.2709999 2.612 1
15.647 -3.8310001 3.2880001 1
14.791 -3.6689999 3.3629999 9
14.66 -3.6860001 3.589 9
9.3739996 -2.2839999 1.508 13
12.01 -2.96 2.131 1
13.897 -3.4660001 2.6989999 1
14.781 -3.733 3.122 7
14.622 -3.74 3.3410001 9
14.501 -3.76 3.5680001 9
10.76 -2.7019999 1.7410001 1
12.068 -3.066 2.1530001 1
14.043 -3.6099999 2.7420001 2
14.609 -3.802 3.102 10
14.458 -3.8110001 3.3210001 10
14.335 -3.8280001 3.5439999 10
10.856 -2.809 1.767 1
12.119 -3.171 2.175 1
14.249 -3.7720001 2.7980001 2
14.442 -3.869 3.0829999 12
14.305 -3.881 3.302 11
0 0 0 50
10.877 -2.895 1.7819999 1
12.177 -3.277 2.198 1
14.291 -3.8900001 2.8210001 3
14.274 -3.9319999 3.0639999 11
14.145 -3.9449999 3.2820001 13
14.015 -3.9590001 3.5 36
10.945 -2.994 1.803 1
12.281 -3.3959999 2.2290001 1
14.293 -3.9979999 2.8369999 4
14.182 -4.0139999 3.059 14
14.135 -4.0500002 3.2969999 13
14.081 -4.086 3.5339999 14
7.2389998 -2.0339999 1.2 2
12.329 -3.5009999 2.2509999 1
14.271 -4.098 2.848 13
14.233 -4.1350002 3.086 14
14.176 -4.1690001 3.323 13
14.122 -4.2049999 3.5610001 94
7.1900001 -2.073 1.199 6
12.413 -3.6170001 2.2780001 1
14.304 -4.2140002 2.8699999 30
14.262 -4.2490001 3.108 94
14.211 -4.2849998 3.3469999 92
14.154 -4.3210001 3.586 40
7.165 -2.118 1.201 5
12.432 -3.7130001 2.2950001 1
14.34 -4.329 2.892 48
14.324 -4.3730001 3.138 14
14.276 -4.4089999 3.378 14
14.465 -4.5229998 3.6830001 12
7.2210002 -2.1860001 1.2180001 28
12.471 -3.8139999 2.3139999 1
14.301 -4.4200001 2.8989999 6
14.634 -4.5739999 3.221 11
14.58 -4.6090002 3.467 11
14.526 -4.6479998 3.7149999 12
7.1690001 -2.22 1.215 0
12.585 -3.938 2.3469999 1
14.383 -4.5479999 2.9300001 3
14.696 -4.698 3.25 11
14.622 -4.7280002 3.493 11
14.584 -4.7719998 3.7460001 11
11.219 -3.5550001 1.913 1
12.568 -4.0209999 2.3559999 1
14.385 -4.651 2.9449999 4
14.75 -4.8210001 3.2780001 10
14.68 -4.8530002 3.523 11
14.625 -4.8920002 3.7739999 10
11.285 -3.654 1.934 1
12.67 -4.1440001 2.3870001 1
14.452 -4.7750001 2.973 3
14.788 -4.9390001 3.302 10
14.73 -4.9749999 3.5510001 2
14.621 -4.9959998 3.789 2
11.278 -3.73 1.943 1
12.752 -4.2600002 2.414 1
14.489 -4.888 2.994 3
14.807 -5.0489998 3.3199999 2
14.76 -5.0890002 3.573 3
14.636 -5.1040001 3.809 3
11.333 -3.8269999 1.962 1
12.821 -4.3699999 2.4389999 1
14.562 -5.013 3.023 3
0 0 0 50
14.809 -5.2069998 3.6010001 3
14.717 -5.2340002 3.846 2
11.426 -3.9349999 1.987 1
12.828 -4.4590001 2.451 1
14.574 -5.1149998 3.0380001 15
14.885 -5.2789998 3.3659999 3
13.156 -4.7160001 3.211 63
14.802 -5.3660002 3.8829999 2
11.437 -4.0149999 1.998 1
12.895 -4.5689998 2.4749999 1
14.552 -5.2049999 3.046 0
14.935 -5.3969998 3.391 3
13.199 -4.8200002 3.234 0
14.87 -5.4910002 3.915 7
11.465 -4.0999999 2.0120001 1
13.261 -4.7849998 2.5550001 8
15.075 -5.4910002 3.168 2
15.032 -5.5300002 3.4260001 10
14.971 -5.566 3.6819999 11
14.927 -5.6100001 3.9449999 10
11.54 -4.2010002 2.033 1
12.981 -4.7670002 2.5109999 1
15.102 -5.598 3.1860001 2
15.082 -5.645 3.4489999 10
15.022 -5.6810002 3.707 11
14.98 -5.7270002 3.9719999 11
11.585 -4.289 2.049 1
13.035 -4.869 2.5309999 1
15.171 -5.7189999 3.211 2
15.131 -5.7589998 3.4719999 10
15.075 -5.7969999 3.733 10
15.019 -5.8379998 3.9949999 10
11.573 -4.3559999 2.0539999 1
13.075 -4.9640002 2.5469999 2
15.213 -5.829 3.2309999 3
15.176 -5.8699999 3.494 9
15.121 -5.908 3.7550001 9
12.152 -4.7979999 3.2420001 66
11.631 -4.4489999 2.072 1
13.103 -5.0539999 2.5610001 1
15.275 -5.9450002 3.2539999 3
12.279 -4.8239999 2.835 12
12.175 -4.8309999 3.0320001 75
12.058 -4.8340001 3.2260001 78
11.79 -4.5809999 2.1070001 2
12.399 -4.8569999 2.4300001 8
12.28 -4.8520002 2.6229999 12
12.185 -4.8590002 2.8210001 21
12.083 -4.8660002 3.017 75
11.975 -4.8720002 3.2119999 79
11.91 -4.6950002 2.1340001 2
12.336 -4.9029999 2.425 12
12.17 -4.8790002 2.6070001 22
12.107 -4.8979998 2.8099999 29
11.998 -4.9000001 3.003 75
11.895 -4.908 3.198 78
12.07 -4.8270001 2.168 3
12.224 -4.928 2.408 12
12.115 -4.9250002 2.6010001 12
12.034 -4.9359999 2.799 34
11.912 -4.9320002 2.9879999 75
11.816 -4.941 3.1830001 77
0 0 0 50
12.145 -4.961 2.398 12
12.044 -4.961 2.5899999 12
11.961 -4.9699998 2.7880001 40
11.844 -4.967 2.9760001 75
11.75 -4.9770002 3.171 77
12.007 -4.9310002 2.1659999 7
12.06 -4.9899998 2.385 11
11.967 -4.9920001 2.579 12
11.882 -4.9990001 2.7739999 44
11.774 -4.9990001 2.9630001 75
11.686 -5.0100002 3.1589999 77
11.945 -4.967 2.158 10
11.982 -5.0180001 2.3729999 11
11.887 -5.0190001 2.5650001 12
11.808 -5.0279999 2.76 57
11.718 -5.0339999 2.954 75
11.625 -5.0419998 3.1459999 76
11.741 -4.9400001 2.1240001 12
11.912 -5.0479999 2.362 11
11.822 -5.0489998 2.5539999 12
11.735 -5.053 2.7460001 63
11.652 -5.0609999 2.9400001 75
11.554 -5.066 3.1300001 79
11.717 -4.9850001 2.1210001 11
11.848 -5.0760002 2.352 11
11.759 -5.0760002 2.5420001 11
11.681 -5.0830002 2.7360001 68
0 0 0 0
11.485 -5.0869999 3.1140001 79
11.675 -5.02 2.115 26
11.792 -5.105 2.342 11
11.696 -5.1009998 2.53 11
11.629 -5.112 2.7249999 70
11.5 -5.098 2.905 76
11.43 -5.112 3.1010001 79
11.608 -5.0409999 2.1029999 32
11.734 -5.1290002 2.3310001 11
11.649 -5.1290002 2.52 11
11.571 -5.1339998 2.7119999 71
0 0 0 0
11.381 -5.1360002 3.0880001 78
11.632 -5.098 2.1070001 16
11.679 -5.152 2.319 11
11.598 -5.152 2.5079999 11
11.521 -5.1570001 2.6989999 71
0 0 0 50
11.338 -5.1599998 3.076 78
11.515 -5.0910001 2.085 39
11.628 -5.1729999 2.3080001 11
11.546 -5.1719999 2.497 11
11.477 -5.1789999 2.688 71
11.375 -5.1729999 2.8729999 75
11.306 -5.1859999 3.066 52
11.483 -5.118 2.0769999 34
11.59 -5.198 2.299 11
11.504 -5.1929998 2.4860001 11
11.433 -5.198 2.6760001 55
11.345 -5.198 2.8629999 44
11.267 -5.204 3.052 48
11.45 -5.1430001 2.069 34
11.546 -5.2160001 2.2869999 11
11.473 -5.217 2.4760001 11
11.397 -5.2179999 2.665 37
11.311 -5.2179999 2.852 47
11.232 -5.2220001 3.0409999 43
11.428 -5.1680002 2.0610001 34
11.501 -5.2319999 2.2750001 11
11.429 -5.2309999 2.4630001 11
11.359 -5.2340002 2.652 37
11.276 -5.2329998 2.839 47
11.193 -5.2360001 3.026 43
11.403 -5.1900001 2.053 35
11.471 -5.25 2.2650001 11
11.397 -5.2470002 2.451 11
11.327 -5.2490001 2.6400001 36
11.246 -5.2480001 2.8269999 47
11.17 -5.2529998 3.0150001 44
11.342 -5.1919999 2.0369999 32
11.44 -5.2649999 2.253 11
11.372 -5.2639999 2.441 11
11.296 -5.2620001 2.628 35
11.228 -5.2659998 2.8169999 46
11.144 -5.2649999 3.0020001 41
11.273 -5.1880002 2.0190001 21
11.41 -5.277 2.2420001 12
0 0 0 50
11.273 -5.2750001 2.6170001 35
11.202 -5.276 2.8039999 48
11.117 -5.2740002 2.9879999 44
11.278 -5.2129998 2.013 16
11.395 -5.2930002 2.233 12
11.316 -5.2849998 2.4170001 11
11.251 -5.2849998 2.6040001 34
11.174 -5.283 2.79 50
11.1 -5.283 2.9760001 43
11.163 -5.1810002 1.9859999 1
11.37 -5.3010001 2.22 12
11.298 -5.2950001 2.405 11
11.234 -5.2940001 2.5929999 33
11.158 -5.2909999 2.7780001 50
11.086 -5.2919998 2.9649999 44
11.151 -5.1919999 1.976 2
11.357 -5.3119998 2.21 11
11.281 -5.302 2.3940001 12
11.237 -5.3099999 2.585 30
11.146 -5.2979999 2.767 51
11.079 -5.3000002 2.954 44
11.187 -5.223 1.974 2
11.339 -5.316 2.198 12
11.278 -5.3119998 2.3840001 12
11.223 -5.3140001 2.573 26
11.137 -5.303 2.7550001 52
11.074 -5.3060002 2.9430001 48
11.17 -5.2259998 1.962 6
11.321 -5.3179998 2.1849999 12
11.263 -5.3140001 2.3710001 12
11.223 -5.3210001 2.563 23
11.13 -5.3060002 2.743 52
11.057 -5.302 2.928 44
11.155 -5.2259998 1.95 5
11.289 -5.309 2.1689999 19
11.255 -5.3150001 2.3599999 12
11.222 -5.3239999 2.552 19
11.131 -5.309 2.733 52
11.068 -5.309 2.9200001 44
11.05 -5.1820002 1.923 2
11.273 -5.3039999 2.1559999 22
0 0 0 50
11.218 -5.323 2.54 12
11.133 -5.309 2.7219999 52
11.072 -5.309 2.9089999 45
11.008 -5.1620002 1.904 2
11.284 -5.309 2.1470001 24
11.258 -5.3169999 2.3380001 12
11.224 -5.323 2.53 11
11.142 -5.309 2.7119999 54
11.077 -5.3060002 2.8989999 49
10.983 -5.1490002 1.8890001 2
11.287 -5.3070002 2.1359999 24
11.273 -5.3189998 2.329 12
11.227 -5.3179998 2.5179999 11
11.148 -5.3049998 2.701 53
11.092 -5.3049998 2.8900001 44
11 -5.151 1.881 2
11.306 -5.309 2.128 21
11.286 -5.3169999 2.3199999 12
11.239 -5.3150001 2.5090001 11
11.166 -5.303 2.6919999 52
11.102 -5.2969999 2.878 45
10.881 -5.0869999 1.849 2
11.311 -5.3010001 2.1159999 12
11.306 -5.3150001 2.3110001 12
11.25 -5.3070002 2.4979999 11
11.189 -5.2989998 2.684 51
11.125 -5.2930002 2.8699999 44
10.782 -5.0289998 1.8200001 2
11.341 -5.302 2.108 12
11.319 -5.3060002 2.3010001 12
11.266 -5.2979999 2.4879999 11
11.208 -5.2909999 2.675 49
11.15 -5.2859998 2.862 46
10.852 -5.0469999 1.819 2
11.326 -5.2779999 2.092 11
11.342 -5.2989998 2.2909999 12
0 0 0 50
11.245 -5.2870002 2.6700001 48
11.172 -5.2750001 2.8529999 46
10.887 -5.0450001 1.813 2
11.323 -5.257 2.0780001 9
11.368 -5.289 2.283 12
11.32 -5.2820001 2.471 11
11.269 -5.2750001 2.6600001 47
11.207 -5.2670002 2.8469999 48
0 0 0 50
11.33 -5.237 2.066 7
11.405 -5.2820001 2.276 12
11.357 -5.2740002 2.4649999 11
11.293 -5.2589998 2.651 43
11.235 -5.2509999 2.839 51
10.567 -4.8530002 1.734 2
11.302 -5.197 2.0469999 11
11.434 -5.2680001 2.267 12
11.386 -5.2579999 2.4560001 11
0 0 0 50
11.274 -5.2379999 2.8329999 54
10.477 -4.7859998 1.707 2
11.374 -5.2010002 2.046 36
11.47 -5.2540002 2.26 12
11.417 -5.2399998 2.448 11
11.388 -5.2399998 2.642 34
0 0 0 50
10.211 -4.6360002 1.651 1
11.353 -5.1599998 2.027 24
11.506 -5.2360001 2.2520001 11
11.455 -5.2220001 2.441 10
11.423 -5.2189999 2.635 26
11.354 -5.2030001 2.822 49
10.122 -4.5650001 1.624 1
11.312 -5.1059999 2.006 31
11.549 -5.2179999 2.2449999 11
11.512 -5.2090001 2.437 10
11.46 -5.197 2.6270001 27
11.394 -5.1799998 2.8150001 77
10.055 -4.5029998 1.601 1
11.265 -5.0469999 1.983 28
11.611 -5.2059999 2.2420001 11
11.551 -5.1859999 2.4300001 10
11.523 -5.1830001 2.6259999 18
11.459 -5.1659999 2.8139999 81
9.9829998 -4.4349999 1.577 1
11.215 -4.9829998 1.96 23
11.679 -5.1929998 2.24 11
0 0 0 50
11.57 -5.158 2.6199999 10
11.512 -5.1430001 2.8110001 79
9.9189997 -4.369 1.554 1
11.229 -4.947 1.948 10
11.766 -5.1849999 2.2409999 11
11.673 -5.1490002 2.424 11
11.622 -5.1329999 2.6159999 10
11.566 -5.119 2.8080001 79
9.8500004 -4.3000002 1.531 1
11.236 -4.9039998 1.9349999 9
11.854 -5.1739998 2.243 12
11.722 -5.1199999 2.4189999 11
11.681 -5.1079998 2.6129999 10
11.634 -5.0960002 2.8069999 82
9.8059998 -4.2389998 1.512 1
11.216 -4.8460002 1.9170001 3
0 0 0 50
11.787 -5.0949998 2.4170001 11
11.742 -5.0809999 2.6110001 10
11.692 -5.066 2.8050001 78
9.743 -4.1690001 1.4910001 1
11.156 -4.77 1.893 2
11.978 -5.1199999 2.2349999 21
11.854 -5.0679998 2.415 11
11.81 -5.053 2.6099999 10
11.763 -5.039 2.806 83
9.6639996 -4.0890002 1.467 1
10.933 -4.6230001 1.842 2
11.999 -5.0710001 2.224 26
11.927 -5.0409999 2.414 11
11.877 -5.0219998 2.609 10
11.83 -5.007 2.8050001 73
9.6149998 -4.0219998 1.448 1
10.64 -4.4460001 1.78 1
12.012 -5.0159998 2.2119999 12
11.999 -5.0100002 2.414 11
11.957 -4.994 2.6110001 10
11.914 -4.9790001 2.809 67
0 0 0 50
10.586 -4.369 1.758 1
12.022 -4.9580002 2.1989999 11
12.078 -4.9790001 2.414 11
12.039 -4.9640002 2.6140001 10
12 -4.9499998 2.813 54
9.526 -3.8870001 1.413 1
10.515 -4.2839999 1.734 1
12.083 -4.9169998 2.1960001 7
12.168 -4.9489999 2.4170001 11
12.127 -4.9310002 2.6170001 11
12.089 -4.9169998 2.8180001 35
9.4689999 -3.812 1.3940001 1
10.419 -4.1869998 1.707 1
12.077 -4.8470001 2.1800001 6
12.257 -4.9159999 2.4200001 14
12.178 -4.882 2.6129999 20
12.177 -4.881 2.823 25
9.4209995 -3.74 1.377 1
10.392 -4.1170001 1.6900001 1
11.943 -4.724 2.1429999 2
12.352 -4.881 2.424 9
0 0 0 50
12.257 -4.8400002 2.826 11
9.382 -3.6700001 1.3609999 1
10.349 -4.039 1.673 1
11.762 -4.5830002 2.0969999 2
13.058 -5.0819998 2.5480001 2
15.212 -5.915 3.2279999 2
15.19 -5.9050002 3.484 10
9.3590002 -3.605 1.349 1
10.297 -3.957 1.653 1
11.542 -4.428 2.046 1
13.013 -4.9850001 2.5250001 1
0 0 0 50
15.14 -5.7909999 3.4549999 10
9.309 -3.53 1.332 1
10.25 -3.8770001 1.636 1
11.474 -4.3299999 2.0209999 1
12.923 -4.869 2.494 1
14.93 -5.618 3.1340001 2
15.088 -5.6739998 3.4260001 11
9.2930002 -3.4649999 1.321 1
10.206 -3.7950001 1.618 1
11.387 -4.2249999 1.995 1
12.882 -4.7709999 2.473 1
14.809 -5.4780002 3.0929999 2
15.056 -5.5640001 3.402 10
0 0 0 50
10.169 -3.717 1.603 1
11.358 -4.1409998 1.979 1
12.903 -4.6950002 2.4630001 1
14.716 -5.3460002 3.059 1
14.958 -5.428 3.3640001 3
9.2320004 -3.3239999 1.296 1
10.136 -3.638 1.5880001 1
11.32 -4.052 1.961 1
12.704 -4.5380001 2.4130001 1
14.434 -5.145 2.9849999 1
14.867 -5.2940001 3.3280001 2
9.1949997 -3.25 1.283 1
0 0 0 50
11.251 -3.9519999 1.939 1
12.673 -4.441 2.3959999 1
14.37 -5.0250001 2.9579999 6
14.862 -5.1890001 3.312 2
9.1739998 -3.1800001 1.272 1
10.061 -3.4760001 1.5599999 1
11.198 -3.8570001 1.921 1
12.571 -4.3179998 2.365 1
14.314 -4.9070001 2.9330001 6
14.838 -5.0770001 3.293 3
7.132 -2.424 0.98400003 0
0 0 0 50
11.13 -3.756 1.9 1
12.569 -4.23 2.3540001 1
14.298 -4.8000002 2.9170001 7
14.791 -4.9559999 3.2690001 8
7.086 -2.358 0.972 31
7.132 -2.365 1.094 10
11.107 -3.6700001 1.887 1
12.524 -4.1259999 2.335 1
14.305 -4.6999998 2.9070001 6
14.754 -4.836 3.2479999 9
7.0500002 -2.296 0.96200001 36
7.0799999 -2.2969999 1.082 29
11.078 -3.5810001 1.874 1
12.391 -3.9920001 2.3010001 1
0 0 0 50
14.687 -4.7069998 3.221 9
7.0100002 -2.233 0.95200002 49
7.046 -2.2349999 1.071 33
11.079 -3.5 1.8660001 1
12.481 -3.9300001 2.309 1
14.299 -4.4889998 2.8829999 3
14.642 -4.5840001 3.1989999 10
7.0040002 -2.1800001 0.94700003 62
7.0349998 -2.1800001 1.0650001 47
7.1659999 -2.211 1.202 1
12.405 -3.8150001 2.286 1
0 0 0 50
14.328 -4.3800001 3.1199999 10
7.007 -2.1289999 0.94300002 81
7.039 -2.1289999 1.062 51
7.1950002 -2.1670001 1.202 10
12.396 -3.7190001 2.2750001 1
14.319 -4.2810001 2.8670001 39
14.262 -4.2509999 3.0940001 84
7.0229998 -2.082 0.94199997 75
7.0549998 -2.0810001 1.0599999 54
7.1630001 -2.1040001 1.193 8
12.381 -3.622 2.2650001 1
14.289 -4.165 2.8510001 10
0 0 0 50
7.053 -2.0380001 0.94199997 67
7.0739999 -2.0339999 1.059 53
7.191 -2.0580001 1.193 2
12.358 -3.5220001 2.2539999 1
14.281 -4.0549998 2.8410001 8
14.183 -4.013 3.0580001 12
7.0739999 -1.9910001 0.94099998 63
7.099 -1.987 1.059 47
7.2490001 -2.0190001 1.199 0
12.321 -3.4170001 2.24 1
14.348 -3.9630001 2.846 4
14.294 -3.9330001 3.073 8
0 0 0 50
7.1630001 -1.95 1.0650001 27
10.941 -2.9630001 1.804 1
12.291 -3.313 2.2279999 1
14.355 -3.8529999 2.839 2
14.453 -3.865 3.099 9
7.1869998 -1.9119999 0.94999999 27
7.3000002 -1.931 1.082 6
10.974 -2.888 1.8049999 1
12.285 -3.217 2.221 1
14.428 -3.7620001 2.846 2
14.609 -3.793 3.125 10
7.3579998 -1.901 0.97000003 2
9.8730001 -2.536 1.46 1
10.936 -2.793 1.794 1
12.316 -3.1300001 2.221 1
14.105 -3.5680001 2.7750001 2
14.774 -3.721 3.1530001 8
9.04 -2.2650001 1.189 2
9.875 -2.4590001 1.457 1
10.922 -2.704 1.7869999 1
12.302 -3.03 2.2130001 1
13.848 -3.3929999 2.7190001 1
0 0 0 50
9.0439997 -2.1949999 1.186 2
9.7679996 -2.355 1.437 1
9.3000002 -2.2290001 1.518 38
9.3079996 -2.2179999 1.671 28
13.977 -3.3139999 2.7379999 1
16.094999 -3.7980001 3.4200001 1
9.2220001 -2.165 1.207 3
9.3330002 -2.1760001 1.37 34
9.2200003 -2.1359999 1.502 58
9.2460003 -2.1300001 1.656 46
13.879 -3.1789999 2.7130001 1
0 0 0 50
9.2550001 -2.098 1.2079999 4
9.3009996 -2.0940001 1.363 48
9.2089996 -2.0599999 1.497 77
9.2290001 -2.052 1.65 52
13.894 -3.0710001 2.711 1
16.073999 -3.533 3.402 1
9.2550001 -2.0239999 1.206 5
9.3170004 -2.023 1.362 50
9.2279997 -1.99 1.497 79
9.2530003 -1.982 1.651 51
0 0 0 50
16.052 -3.398 3.391 1
9.2709999 -1.9529999 1.206 5
9.3479996 -1.954 1.365 45
9.2650003 -1.923 1.501 59
9.2919998 -1.916 1.655 39
13.923 -2.852 2.707 1
16.101999 -3.279 3.3959999 1
9.2410002 -1.872 1.2 3
9.4980001 -1.909 1.3839999 5
9.3640003 -1.868 1.515 34
0 0 0 50
13.886 -2.7320001 2.6960001 1
16.084999 -3.1459999 3.388 1
9.0930004 -1.7690001 1.179 1
9.9200001 -1.915 1.444 1
10.968 -2.0999999 1.772 1
12.292 -2.3369999 2.184 1
13.957 -2.6329999 2.7060001 1
16.198999 -3.036 3.4070001 1
0 0 0 50
9.9449997 -1.8380001 1.4450001 1
10.996 -2.016 1.774 1
12.315 -2.24 2.1849999 1
13.968 -2.5220001 2.7049999 1
16.006001 -2.869 3.362 2
9.1040001 -1.623 1.178 1
9.9289999 -1.7539999 1.441 1
11.013 -1.929 1.774 1
12.31 -2.138 2.181 1
13.962 -2.4059999 2.701 1
16.049 -2.7449999 3.3670001 2
9.1199999 -1.551 1.179 1
9.9449997 -1.676 1.442 1
11.016 -1.839 1.773 1
12.28 -2.033 2.174 1
0 0 0 50
16.174 -2.6340001 3.3900001 1
9.1339998 -1.479 1.179 2
9.9589996 -1.597 1.443 1
11.025 -1.751 1.773 1
12.337 -1.941 2.1819999 1
14.092 -2.198 2.72 1
15.179 -2.3469999 3.178 3
9.1350002 -1.404 1.179 1
9.9849997 -1.5190001 1.4450001 1
11.022 -1.66 1.771 1
0 0 0 50
14.098 -2.0829999 2.7190001 1
16.282 -2.3840001 3.4059999 3
9.158 -1.332 1.181 1
9.9860001 -1.437 1.444 1
11.054 -1.574 1.774 1
12.352 -1.74 2.1800001 1
13.986 -1.952 2.6949999 1
16.233999 -2.243 3.3929999 3
9.1599998 -1.258 1.1799999 1
9.9969997 -1.3559999 1.4450001 1
0 0 0 50
12.386 -1.643 2.1849999 1
13.804 -1.811 2.658 2
15.936 -2.069 3.3280001 2
9.1750002 -1.183 1.181 1
10.042 -1.279 1.451 1
11.108 -1.397 1.78 1
12.417 -1.544 2.1889999 1
14.118 -1.734 2.7160001 1
16.497 -2.0039999 3.4430001 2
7.5630002 -0.912 0.97299999 10
10.049 -1.1950001 1.451 1
11.13 -1.306 1.783 1
12.466 -1.444 2.1960001 1
0 0 0 50
16.389 -1.853 3.4170001 4
7.5900002 -0.85100001 0.97600001 12
10.048 -1.1109999 1.45 1
11.147 -1.215 1.785 1
12.461 -1.34 2.194 1
13.811 -1.465 2.654 2
16.229 -1.699 3.382 30
7.605 -0.78799999 0.97799999 12
10.082 -1.03 1.454 1
11.163 -1.123 1.786 1
0 0 0 50
14.083 -1.377 2.704 1
15.899 -1.531 3.3110001 30
7.6009998 -0.72500002 0.977 11
10.088 -0.94599998 1.454 1
11.198 -1.034 1.791 1
12.487 -1.1339999 2.1960001 1
12.84 -1.148 2.464 2
15.571 -1.37 3.2409999 29
7.6079998 -0.662 0.977 11
10.105 -0.86299998 1.456 1
0 0 0 50
12.667 -1.045 2.2260001 4
