# .PCD v0.7 - Point Cloud Data file format
VERSION 0.7
FIELDS x y z intensity
SIZE 4 4 4 4
TYPE F F F F
COUNT 1 1 1 1
WIDTH 1756
HEIGHT 1
VIEWPOINT 0 0 0 1 0 0 0
POINTS 1756
DATA ascii
7.0359998 -2.632 1.497 128
7.2199998 -2.648 0.91900003 127
7.1960001 -2.6459999 1.035 115
7.1570001 -2.6400001 1.148 126
7.1240001 -2.638 1.263 122
7.0840001 -2.6340001 1.377 120
7.0370002 -2.628 1.488 127
7.2249999 -2.6470001 0.912 134
0 0 0 50
7.1589999 -2.6370001 1.14 132
7.1240001 -2.6329999 1.2539999 122
7.086 -2.6289999 1.368 120
7.046 -2.625 1.482 137
7.2340002 -2.645 0.90399998 132
7.1989999 -2.638 1.018 115
7.1630001 -2.632 1.132 131
7.1300001 -2.628 1.247 122
7.0960002 -2.625 1.3609999 119
7.0539999 -2.6199999 1.474 126
0 0 0 50
7.204 -2.6329999 1.01 120
7.1700001 -2.6270001 1.124 128
7.1399999 -2.6240001 1.24 124
7.0999999 -2.6170001 1.353 122
7.066 -2.6140001 1.467 128
7.2449999 -2.6340001 0.88800001 131
7.2160001 -2.628 1.003 121
7.1849999 -2.6229999 1.118 129
7.1500001 -2.6170001 1.232 124
7.1139998 -2.6110001 1.346 120
7.0689998 -2.6040001 1.4579999 133
7.2480001 -2.6259999 0.88 130
7.2220001 -2.6199999 0.995 118
7.1900001 -2.6129999 1.11 139
0 0 0 50
7.1160002 -2.5999999 1.337 119
7.0770001 -2.5929999 1.451 128
7.2589998 -2.618 0.87199998 129
7.2329998 -2.612 0.98699999 117
7.2010002 -2.6040001 1.102 132
7.1690001 -2.598 1.217 122
7.1329999 -2.5910001 1.331 120
7.0970001 -2.586 1.4450001 122
7.277 -2.6099999 0.86500001 128
7.2420001 -2.6010001 0.97899997 121
7.2090001 -2.592 1.094 128
7.1760001 -2.585 1.209 125
0 0 0 50
7.0929999 -2.5680001 1.4349999 131
7.2859998 -2.599 0.85799998 136
7.2550001 -2.589 0.972 121
7.2220001 -2.5810001 1.087 132
7.1919999 -2.5739999 1.202 123
7.1539998 -2.5650001 1.316 124
7.1220002 -2.5599999 1.431 123
7.2950001 -2.5840001 0.84899998 123
7.2649999 -2.575 0.96399999 116
7.2290001 -2.5650001 1.0779999 130
7.1960001 -2.556 1.193 120
7.1700001 -2.5510001 1.309 115
7.1459999 -2.5480001 1.426 114
7.3060002 -2.5699999 0.84100002 121
0 0 0 50
7.2509999 -2.552 1.072 133
7.2140002 -2.5420001 1.186 115
7.1929998 -2.5380001 1.303 115
7.1490002 -2.5280001 1.416 118
7.3249998 -2.556 0.83399999 114
7.2979999 -2.546 0.94999999 119
7.2649999 -2.536 1.0650001 128
7.2309999 -2.526 1.179 117
7.204 -2.5190001 1.296 117
7.1669998 -2.5109999 1.41 118
7.3410001 -2.539 0.82700002 93
7.3109999 -2.5280001 0.94199997 116
7.2779999 -2.517 1.057 134
7.25 -2.5090001 1.173 118
7.2150002 -2.4990001 1.288 113
7.1849999 -2.4920001 1.404 115
7.3540001 -2.52 0.81900001 69
0 0 0 50
7.2930002 -2.4979999 1.05 127
7.2690001 -2.49 1.1670001 118
7.2340002 -2.48 1.2819999 112
7.197 -2.47 1.396 116
7.3709998 -2.5009999 0.81199998 34
7.349 -2.4909999 0.92900002 115
7.3150001 -2.4790001 1.044 131
7.2820001 -2.4679999 1.16 121
7.2529998 -2.4590001 1.276 115
7.223 -2.451 1.392 120
7.3800001 -2.477 0.80500001 27
7.369 -2.471 0.92299998 120
7.3330002 -2.457 1.038 133
0 0 0 50
7.276 -2.438 1.27 117
7.244 -2.4289999 1.387 119
7.4120002 -2.46 0.79900002 25
7.3850002 -2.448 0.91600001 122
7.3509998 -2.434 1.031 130
7.3239999 -2.424 1.148 120
7.2930002 -2.414 1.2640001 118
7.2589998 -2.4030001 1.38 120
7.4159999 -2.431 0.79100001 23
7.4109998 -2.425 0.91000003 115
7.3769999 -2.4119999 1.026 132
7.3460002 -2.4000001 1.143 122
7.316 -2.3889999 1.2589999 116
0 0 0 50
7.4369998 -2.4070001 0.78500003 22
7.4310002 -2.4000001 0.90399998 123
7.3979998 -2.3859999 1.02 133
7.369 -2.375 1.137 122
7.3379998 -2.3640001 1.2539999 115
7.3039999 -2.352 1.37 124
7.467 -2.3840001 0.77899998 25
7.4530001 -2.3740001 0.898 128
7.421 -2.3599999 1.015 135
7.3860002 -2.3469999 1.131 124
7.3600001 -2.336 1.249 119
7.3319998 -2.326 1.3660001 120
7.4860001 -2.355 0.77399999 24
7.4759998 -2.3469999 0.89200002 125
7.4439998 -2.3329999 1.01 133
7.4039998 -2.3169999 1.126 122
0 0 0 50
7.3520002 -2.2969999 1.3609999 122
7.4920001 -2.322 0.76599997 27
7.4949999 -2.3169999 0.88700002 119
7.4619999 -2.302 1.0039999 131
7.427 -2.2880001 1.1210001 120
7.4050002 -2.2780001 1.24 117
7.3709998 -2.266 1.3559999 118
7.5250001 -2.2950001 0.76200002 28
7.5139999 -2.286 0.88200003 112
7.487 -2.2720001 1 133
7.461 -2.26 1.118 125
7.4330001 -2.2479999 1.2359999 114
7.3969998 -2.2349999 1.353 115
7.559 -2.2679999 0.75800002 24
7.5430002 -2.256 0.87699997 92
7.5139999 -2.2409999 0.995 134
7.4889998 -2.2290001 1.114 124
7.4580002 -2.2160001 1.232 118
7.4250002 -2.2030001 1.35 124
0 0 0 50
7.5619998 -2.2219999 0.87199998 65
7.5380001 -2.2090001 0.991 128
7.5120001 -2.1960001 1.11 120
7.4809999 -2.1819999 1.228 119
7.4530001 -2.1700001 1.347 120
7.5949998 -2.198 0.74699998 15
7.599 -2.1919999 0.86900002 32
7.5650001 -2.175 0.98699999 136
7.533 -2.1600001 1.1059999 125
7.5120001 -2.1489999 1.226 118
7.4819999 -2.1370001 1.345 118
7.599 -2.1570001 0.741 8
7.618 -2.154 0.86400002 26
7.5949998 -2.141 0.98400003 136
0 0 0 50
7.539 -2.1140001 1.223 119
7.5019999 -2.0999999 1.341 114
7.585 -2.1110001 0.73299998 2
7.6360002 -2.1159999 0.86000001 28
7.6269999 -2.1070001 0.98199999 131
7.5929999 -2.0899999 1.101 121
7.572 -2.079 1.221 111
7.5359998 -2.0639999 1.339 107
7.5650001 -2.0610001 0.72399998 2
7.6750002 -2.0829999 0.85799998 23
7.6550002 -2.0699999 0.97899997 126
7.6220002 -2.0539999 1.098 119
7.5949998 -2.0409999 1.2180001 110
7.5669999 -2.0280001 1.3380001 106
7.5549998 -2.0150001 0.71799999 2
7.6999998 -2.0450001 0.85399997 23
7.6849999 -2.033 0.97600001 125
0 0 0 50
7.6300001 -2.0039999 1.217 112
7.6040001 -1.992 1.3380001 106
7.5489998 -1.9680001 0.71100003 2
7.73 -2.006 0.852 24
7.7179999 -1.995 0.97399998 127
7.6869998 -1.978 1.095 120
7.6609998 -1.965 1.216 111
7.6290002 -1.951 1.336 106
7.539 -1.92 0.70499998 2
7.7589998 -1.966 0.85000002 19
7.7519999 -1.955 0.97299999 126
7.7199998 -1.939 1.094 118
7.6890001 -1.924 1.214 110
7.664 -1.911 1.336 108
7.5250001 -1.869 0.699 2
7.7950001 -1.926 0.84799999 25
7.7800002 -1.913 0.97100002 127
7.7509999 -1.898 1.092 122
7.7329998 -1.886 1.216 111
7.698 -1.87 1.337 107
7.5180001 -1.8200001 0.69300002 2
7.8200002 -1.883 0.84500003 29
0 0 0 50
7.7909999 -1.857 1.0930001 120
7.7550001 -1.841 1.214 109
7.7290001 -1.8279999 1.336 108
7.5320001 -1.775 0.69 2
7.8790002 -1.846 0.847 27
7.8470001 -1.829 0.96899998 123
7.822 -1.814 1.092 122
7.7930002 -1.799 1.214 112
7.7639999 -1.785 1.337 107
7.5549998 -1.7309999 0.68800002 3
7.9070001 -1.801 0.84500003 26
7.8829999 -1.786 0.96899998 108
7.8520002 -1.7690001 1.091 122
7.8270001 -1.755 1.215 113
7.7950001 -1.74 1.337 107
7.6030002 -1.693 0.68800002 3
7.9250002 -1.753 0.84299999 15
7.9159999 -1.7410001 0.96899998 91
7.8920002 -1.726 1.092 126
7.8600001 -1.71 1.215 115
7.8340001 -1.696 1.339 110
7.6420002 -1.65 0.68800002 3
7.9580002 -1.707 0.84299999 16
0 0 0 50
7.9299998 -1.681 1.0930001 128
7.8979998 -1.665 1.217 116
7.868 -1.65 1.34 109
7.677 -1.6059999 0.68800002 3
7.9920001 -1.661 0.84200001 15
7.9910002 -1.649 0.96899998 41
7.96 -1.633 1.094 125
7.9349999 -1.619 1.2180001 119
7.902 -1.603 1.342 113
7.7119999 -1.561 0.68699998 4
7.9910002 -1.605 0.83899999 7
8.0200005 -1.6 0.96899998 32
7.9980001 -1.585 1.095 122
7.961 -1.568 1.2180001 124
7.9400001 -1.554 1.344 112
7.7059999 -1.506 0.68400002 3
7.9759998 -1.5470001 0.83399999 2
8.0740004 -1.5549999 0.972 27
6.7480001 -1.29 0.921 82
6.7680001 -1.286 1.033 89
7.961 -1.503 1.344 119
7.7059999 -1.452 0.68099999 5
7.9369998 -1.483 0.82599998 2
6.6430001 -1.232 0.79699999 85
0 0 0 50
6.8080001 -1.245 1.036 66
7.1869998 -1.306 1.21 56
7.7309999 -1.402 0.68000001 3
7.9619999 -1.432 0.82599998 2
6.638 -1.184 0.79400003 101
6.7820001 -1.201 0.92000002 35
6.8699999 -1.207 1.0420001 53
6.9310002 -1.21 1.164 51
7.7410002 -1.349 0.67900002 3
7.973 -1.377 0.82499999 2
6.6399999 -1.137 0.792 108
6.8730001 -1.168 0.93000001 52
6.954 -1.1720001 1.052 52
6.994 -1.17 1.1720001 54
7.3870001 -1.234 0.64600003 1
7.4590001 -1.235 0.76899999 0
6.6290002 -1.087 0.78899997 103
6.9260001 -1.126 0.935 29
7.0320001 -1.1339999 1.062 60
7.0619998 -1.13 1.1799999 80
7.7729998 -1.242 0.67699999 3
8.0019999 -1.266 0.82300001 2
6.6279998 -1.039 0.78600001 101
6.9460001 -1.079 0.935 24
7.0869999 -1.091 1.068 86
7.0869999 -1.082 1.182 84
7.8070002 -1.1900001 0.67799997 3
7.994 -1.206 0.81999999 2
6.6230001 -0.98900002 0.78399998 92
6.9749999 -1.0319999 0.93699998 24
7.1030002 -1.041 1.068 92
7.099 -1.031 1.182 87
7.7839999 -1.1289999 0.67400002 3
8.0179996 -1.15 0.81999999 2
6.6230001 -0.94 0.78200001 94
7.0370002 -0.98900002 0.94300002 30
7.1059999 -0.98799998 1.066 92
7.105 -0.97899997 1.181 85
7.8049998 -1.074 0.67500001 3
8.0150003 -1.09 0.81800002 2
0 0 0 50
7.079 -0.94199997 0.94700003 42
7.1149998 -0.93699998 1.066 91
7.1100001 -0.92699999 1.1799999 85
7.8080001 -1.016 0.67299998 3
8.0710001 -1.038 0.82200003 2
6.6160002 -0.83999997 0.77899998 100
7.0799999 -0.889 0.94599998 48
7.1069999 -0.88200003 1.063 88
7.1020002 -0.87199998 1.177 85
7.8169999 -0.958 0.67299998 3
8.0839996 -0.97799999 0.82200003 3
6.6090002 -0.79000002 0.77600002 96
7.072 -0.83499998 0.94300002 56
7.0939999 -0.82800001 1.0599999 85
7.092 -0.81800002 1.173 83
7.8070002 -0.89899999 0.671 3
8.1669998 -0.92699999 0.829 3
6.5970001 -0.73900002 0.77399999 86
7.0669999 -0.78100002 0.94099998 62
7.0799999 -0.77200001 1.056 83
7.0780001 -0.76200002 1.169 82
7.7870002 -0.83700001 0.66799998 3
6.6469998 -0.704 0.67400002 8
6.6069999 -0.69 0.77399999 69
6.9770002 -0.71799999 0.92799997 58
7.0500002 -0.71600002 1.05 64
7.052 -0.70599997 1.164 68
7.803 -0.77999997 0.66799998 3
8.2620001 -0.81300002 0.83700001 3
6.671 -0.64600003 0.77999997 34
6.6719999 -0.63599998 0.88599998 96
6.7010002 -0.62900001 0.99699998 66
6.8790002 -0.63599998 1.1339999 22
7.6230001 -0.70300001 0.65200001 1
8.29 -0.75199997 0.838 4
6.9980001 -0.62300003 0.81800002 7
6.8000002 -0.59600002 0.90200001 12
6.7030001 -0.57700002 0.99599999 82
6.8629999 -0.58200002 1.13 26
7.7220001 -0.65200001 0.65899998 2
8.3319998 -0.69099998 0.84200001 4
8.4949999 -0.69099998 0.99199998 3
8.6780005 -0.69300002 1.15 58
8.6479998 -0.67699999 1.284 109
8.6079998 -0.662 1.416 103
7.678 -0.588 0.65499997 3
8.3459997 -0.62599999 0.84200001 4
8.6929998 -0.639 1.0140001 7
8.7360001 -0.62900001 1.1569999 41
8.6990004 -0.61400002 1.291 109
8.6610003 -0.59799999 1.424 102
7.6760001 -0.528 0.65399998 3
8.2849998 -0.55699998 0.83499998 5
8.7139997 -0.57200003 1.015 4
8.7740002 -0.56300002 1.161 35
0 0 0 50
8.7060003 -0.53299999 1.4299999 103
7.539 -0.45899999 0.64200002 2
8.4110003 -0.49900001 0.847 4
8.7150002 -0.50400001 1.0140001 3
8.8360004 -0.498 1.168 29
8.8000002 -0.48300001 1.303 112
8.7600002 -0.46799999 1.438 103
7.4710002 -0.39700001 0.63499999 2
8.4329996 -0.435 0.84799999 4
8.7209997 -0.43599999 1.0140001 2
8.8719997 -0.43000001 1.1720001 25
8.849 -0.41600001 1.309 113
8.8140001 -0.40099999 1.4450001 106
7.5100002 -0.33899999 0.63800001 2
8.4549999 -0.368 0.85000002 4
8.7419996 -0.36700001 1.016 3
8.9219999 -0.361 1.177 21
8.8959999 -0.347 1.3150001 110
8.8620005 -0.33199999 1.452 106
7.487 -0.278 0.63499999 2
8.4540005 -0.301 0.84899998 4
8.7629995 -0.29800001 1.017 3
8.9759998 -0.292 1.184 18
8.9460001 -0.278 1.322 111
8.9090004 -0.26300001 1.459 104
7.5 -0.21799999 0.63599998 2
8.4890003 -0.234 0.852 4
8.7709999 -0.229 1.017 3
9.0279999 -0.221 1.189 15
9.0039997 -0.207 1.329 113
8.9650002 -0.193 1.467 106
7.4899998 -0.15800001 0.634 1
8.5450001 -0.167 0.85600001 4
8.8030005 -0.15899999 1.02 4
9.0830002 -0.15000001 1.196 22
9.0600004 -0.13600001 1.337 105
9.0170002 -0.122 1.474 97
7.5120001 -0.097000003 0.63499999 1
8.5620003 -0.097999997 0.85699999 4
8.8210001 -0.088 1.021 3
9.1350002 -0.077 1.202 17
9.1110001 -0.063000001 1.3430001 103
9.0699997 -0.048999999 1.482 96
7.5159998 -0.035999998 0.63499999 1
8.6059999 -0.028999999 0.861 4
8.8629999 -0.017000001 1.025 3
9.1820002 -0.003 1.207 22
9.1739998 0.0099999998 1.352 102
9.125 0.024 1.49 97
0 0 0 50
8.6090002 0.039999999 0.86000001 4
8.8900003 0.055 1.028 3
9.2410002 0.071000002 1.214 15
9.2250004 0.083999999 1.358 100
9.1820002 0.097999997 1.499 93
7.527 0.085000001 0.634 1
8.5970001 0.11 0.85799998 4
8.9510002 0.127 1.034 4
9.3009996 0.146 1.221 16
9.2819996 0.16 1.3660001 97
9.2349997 0.17399999 1.506 93
7.5279999 0.146 0.634 1
8.5670004 0.17900001 0.85399997 3
9.033 0.20299999 1.0420001 4
9.3590002 0.22400001 1.227 21
9.3409996 0.23800001 1.373 101
9.2959995 0.25099999 1.516 92
7.5469999 0.20900001 0.634 1
8.5319996 0.249 0.85000002 3
9.1070004 0.28 1.05 4
9.4189997 0.30399999 1.234 17
9.3990002 0.31799999 1.381 100
9.3579998 0.331 1.524 92
7.5510001 0.27200001 0.634 1
8.1289997 0.30599999 0.80900002 2
9.1450005 0.35699999 1.053 4
9.4770002 0.38499999 1.2410001 16
9.46 0.398 1.3890001 100
9.415 0.41 1.533 91
7.566 0.336 0.634 1
8.118 0.373 0.80599999 2
9.2130003 0.43599999 1.0599999 4
9.5430002 0.46599999 1.248 14
9.5229998 0.479 1.397 95
9.4790001 0.49200001 1.5420001 91
7.5609999 0.39899999 0.63200003 2
8.1149998 0.44 0.80500001 2
9.2309999 0.514 1.0599999 4
9.5909996 0.54799998 1.253 12
9.5760002 0.56199998 1.403 89
9.5439997 0.57499999 1.551 94
7.5780001 0.463 0.63300002 1
8.1140003 0.50800002 0.80400002 2
9.2810001 0.59399998 1.0650001 5
9.6450005 0.63099998 1.2589999 9
9.6520004 0.64700001 1.413 73
9.6029997 0.65899998 1.5599999 91
7.5809999 0.52700001 0.63200003 1
8.1549997 0.57800001 0.80599999 2
9.3360004 0.676 1.0700001 5
9.7030001 0.71700001 1.265 4
9.717 0.73299998 1.421 55
9.6709995 0.74400002 1.5700001 91
7.592 0.59200001 0.63099998 1
8.1459999 0.64600003 0.80400002 2
0 0 0 50
9.7290001 0.801 1.267 4
9.7700005 0.81900001 1.428 43
9.7390003 0.83099997 1.579 89
7.605 0.65700001 0.63099998 1
8.1219997 0.713 0.80000001 1
9.4119997 0.83999997 1.075 5
9.7290001 0.88200003 1.265 2
9.8450003 0.90799999 1.437 38
9.8030005 0.91900003 1.5880001 88
7.6040001 0.722 0.62900001 1
8.1429996 0.78399998 0.801 1
9.4779997 0.92699999 1.081 5
9.7530003 0.96799999 1.267 2
9.9189997 0.99900001 1.446 32
9.8620005 1.0089999 1.596 87
7.6020002 0.78600001 0.62800002 1
8.1569996 0.85500002 0.801 1
9.5080004 1.01 1.0829999 5
9.7880001 1.0549999 1.27 2
7.6630001 0.83700001 1.1160001 0
9.9370003 1.101 1.607 88
7.6100001 0.852 0.62699997 1
8.1560001 0.92500001 0.79900002 1
9.5240002 1.0930001 1.0829999 5
9.7969999 1.1390001 1.2690001 2
7.5339999 0.88700002 1.096 21
7.638 0.91100001 1.234 5
0 0 0 50
7.697 0.93900001 0.75199997 0
7.6430001 0.94300002 0.86699998 0
7.632 0.95300001 0.98699999 2
7.4590001 0.94199997 1.084 15
7.5250001 0.963 1.214 11
7.631 0.98699999 0.62400001 1
7.6389999 0.99800003 0.74400002 1
7.5869999 1.002 0.85900003 2
7.5430002 1.007 0.97399998 13
7.4130001 1 1.075 22
7.4790001 1.021 1.205 17
7.6199999 1.051 0.62099999 2
7.6329999 1.063 0.74199998 1
7.5890002 1.067 0.85699999 1
7.5630002 1.074 0.97399998 14
7.5609999 1.085 1.095 21
7.4829998 1.086 1.204 14
7.6269999 1.118 0.62 2
7.664 1.1339999 0.74299997 0
7.625 1.1390001 0.85900003 0
7.7020001 1.161 0.991 1
7.5489998 1.149 1.092 23
7.5570002 1.1619999 1.215 16
7.6279998 1.186 0.61699998 1
8.1759996 1.281 0.79000002 2
9.4989996 1.502 1.068 5
7.6300001 1.217 0.97899997 4
7.5949998 1.223 1.097 9
0 0 0 50
7.6339998 1.2539999 0.61500001 1
8.184 1.3559999 0.78799999 2
9.4940004 1.585 1.0650001 5
9.8109999 1.652 1.257 3
7.6890001 1.306 1.108 0
9.9110003 1.699 1.589 79
7.6350002 1.322 0.61299998 1
8.1809998 1.427 0.78500003 1
9.3360004 1.641 1.045 3
9.7910004 1.735 1.252 2
10.05 1.796 1.446 13
10.025 1.807 1.605 42
7.632 1.39 0.61000001 1
8.1999998 1.5039999 0.78500003 1
8.8669996 1.638 0.98900002 1
9.7130003 1.808 1.239 1
10.659 2 1.531 2
12.004 2.2709999 1.919 1
7.631 1.4579999 0.60699999 1
8.198 1.577 0.78200001 1
8.8850002 1.721 0.98900002 1
9.7080002 1.893 1.235 1
10.715 2.105 1.5369999 2
11.978 2.372 1.9119999 1
7.6300001 1.526 0.60399997 1
8.1990004 1.649 0.77899998 1
8.8760004 1.7970001 0.98500001 1
9.7080002 1.979 1.233 1
10.775 2.2130001 1.5420001 2
12.021 2.487 1.916 1
7.632 1.594 0.60100001 2
8.1929998 1.721 0.77499998 1
8.8870001 1.8789999 0.98299998 1
9.6960001 2.063 1.228 1
0 0 0 50
12.009 2.592 1.911 1
7.625 1.661 0.59799999 2
8.1990004 1.796 0.773 1
8.8800001 1.957 0.97899997 1
9.6949997 2.1500001 1.225 1
10.751 2.4000001 1.5319999 1
12.006 2.7 1.9069999 1
7.6329999 1.733 0.59500003 1
8.2010002 1.872 0.76999998 1
8.8710003 2.036 0.97500002 1
9.724 2.2449999 1.225 1
10.745 2.497 1.528 1
11.99 2.8039999 1.902 1
7.6360002 1.804 0.59200001 2
8.1899996 1.944 0.76499999 1
8.8889999 2.122 0.97299999 1
9.743 2.3380001 1.224 1
11.039 2.6659999 1.567 2
11.264 2.737 1.783 16
7.6220002 1.87 0.58700001 2
8.1940002 2.02 0.76200002 1
8.8710003 2.197 0.96799999 1
9.7309999 2.4230001 1.22 1
10.944 2.7420001 1.55 2
11.246 2.835 1.778 22
7.6230001 1.9400001 0.58399999 2
8.1829996 2.092 0.75800002 2
8.8990002 2.286 0.96700001 1
9.7250004 2.5109999 1.215 1
11.029 2.865 1.559 2
11.343 2.9630001 1.79 18
0 0 0 50
8.184 2.168 0.75400001 2
8.8920002 2.3659999 0.963 1
9.7349997 2.6029999 1.2130001 1
11.159 2.9990001 1.573 3
11.431 3.0899999 1.8 15
6.4180002 1.752 0.486 10
8.1750002 2.2409999 0.75 1
8.8959999 2.4489999 0.95999998 1
9.7250004 2.6889999 1.2079999 1
11.291 3.138 1.5880001 4
11.525 3.221 1.812 13
6.289 1.775 0.47299999 46
6.3439999 1.7970001 0.579 19
8.8809996 2.527 0.95499998 1
9.7329998 2.7820001 1.206 1
11.41 3.277 1.601 6
11.63 3.359 1.825 13
6.237 1.818 0.46599999 69
6.2740002 1.836 0.56999999 58
8.8870001 2.6110001 0.95200002 1
9.7589998 2.8800001 1.205 1
11.525 3.4170001 1.613 6
11.735 3.4979999 1.8380001 6
6.204 1.867 0.46000001 87
6.2259998 1.881 0.56199998 69
6.335 1.921 0.676 0
9.7539997 2.97 1.2 1
11.664 3.569 1.6289999 8
11.839 3.641 1.85 8
6.1830001 1.92 0.45500001 95
6.2049999 1.933 0.55800003 72
6.3379998 1.982 0.67299998 4
9.7329998 3.056 1.194 1
10.839 3.418 1.51 0
11.946 3.786 1.864 8
6.1659999 1.974 0.45100001 78
6.2020001 1.9910001 0.55400002 65
6.3270001 2.0380001 0.66900003 0
9.7749996 3.1619999 1.196 1
10.824 3.516 1.5039999 1
12.059 3.9360001 1.878 8
6.1810002 2.0369999 0.449 59
6.2179999 2.0550001 0.55299997 46
8.8900003 2.948 0.93699998 1
9.776 3.2539999 1.192 1
10.825 3.618 1.501 1
12.166 4.085 1.891 7
6.2199998 2.109 0.44800001 42
6.2969999 2.141 0.55699998 19
0 0 0 50
9.7460003 3.336 1.1849999 1
10.835 3.724 1.498 1
12.26 4.2309999 1.902 7
7.579 2.642 0.542 2
8.165 2.8529999 0.71799999 2
8.8739996 3.1110001 0.92699999 1
9.7519999 3.4300001 1.182 1
10.822 3.8210001 1.493 1
12.338 4.3759999 1.911 5
7.5770001 2.714 0.53799999 2
8.1700001 2.934 0.71499997 1
8.8850002 3.1989999 0.92500001 1
9.7530003 3.5239999 1.178 1
10.828 3.927 1.49 1
12.393 4.5149999 1.916 3
7.5770001 2.7869999 0.53399998 2
8.158 3.0079999 0.70999998 1
8.8730001 3.28 0.92000002 1
9.7639999 3.622 1.176 1
10.827 4.0320001 1.487 1
12.466 4.6609998 1.924 2
7.566 2.8570001 0.52899998 2
8.158 3.0880001 0.70599997 1
8.8730001 3.3670001 0.91600001 1
9.757 3.714 1.171 1
10.823 4.1350002 1.483 1
12.548 4.8119998 1.933 4
7.5710001 2.9330001 0.52499998 2
8.1459999 3.1619999 0.70099998 1
8.875 3.4530001 0.912 1
0 0 0 50
10.873 4.2579999 1.4859999 1
12.506 4.9169998 1.924 5
7.5739999 3.0079999 0.52100003 2
8.158 3.2460001 0.69800001 1
8.8900003 3.546 0.91000003 1
9.7749996 3.9100001 1.166 1
10.854 4.3569999 1.48 1
12.466 5.0229998 1.914 7
7.5599999 3.076 0.51599997 2
8.1619997 3.3269999 0.69400001 1
8.8649998 3.622 0.90399998 1
9.7670002 4.0029998 1.1619999 1
10.837 4.4549999 1.475 1
12.379 5.1079998 1.898 9
7.5539999 3.148 0.51200002 2
8.1540003 3.404 0.69 1
8.8879995 3.7190001 0.903 1
9.7950001 4.1090002 1.1619999 1
10.868 4.5749998 1.476 1
12.297 5.1950002 1.883 9
7.5489998 3.221 0.50800002 2
8.1590004 3.487 0.68699998 1
8.8739996 3.8 0.898 1
9.7840004 4.2020001 1.158 1
10.82 4.6609998 1.467 0
12.18 5.2649999 1.863 9
7.5539999 3.2980001 0.50400001 2
8.1529999 3.5650001 0.68300003 1
8.9040003 3.901 0.898 1
9.809 4.309 1.158 1
11.561 5.0939999 1.5650001 2
12.093 5.3470001 1.847 9
7.5450001 3.369 0.5 1
8.1639996 3.6500001 0.68000001 1
8.9110003 3.9920001 0.89499998 1
9.849 4.4229999 1.159 1
11.512 5.1849999 1.556 2
11.984 5.4169998 1.829 9
7.559 3.451 0.498 1
0 0 0 50
8.8929996 4.073 0.89099997 1
9.8059998 4.5009999 1.152 1
11.492 5.2909999 1.551 2
11.873 5.4840002 1.811 9
7.5500002 3.5209999 0.49399999 1
8.1590004 3.8099999 0.67299998 1
8.9180002 4.1719999 0.88999999 1
9.8540001 4.6199999 1.155 1
11.432 5.375 1.54 2
11.741 5.54 1.789 12
7.559 3.6010001 0.491 1
8.1669998 3.8959999 0.671 1
8.9069996 4.256 0.88599998 1
9.8549995 4.7189999 1.153 1
11.464 5.5050001 1.543 2
11.621 5.599 1.77 19
7.5549998 3.675 0.48699999 1
8.1719999 3.9790001 0.66799998 1
0 0 0 50
9.835 4.8080001 1.148 1
11.411 5.5929999 1.534 2
11.522 5.6659999 1.7539999 20
7.559 3.753 0.484 1
8.1820002 4.0669999 0.667 1
8.9110003 4.4359999 0.88200003 1
9.8769999 4.927 1.151 1
11.404 5.704 1.5319999 3
11.406 5.724 1.7359999 22
7.5689998 3.835 0.48199999 2
8.1870003 4.152 0.66399997 1
8.96 4.5510001 0.88499999 1
9.908 5.0430002 1.153 1
11.354 5.7930002 1.524 4
11.302 5.7859998 1.72 22
7.566 3.9100001 0.479 2
8.1969995 4.2389998 0.66299999 1
8.974 4.6490002 0.884 1
9.9090004 5.1430001 1.152 1
11.305 5.882 1.517 6
11.219 5.8559999 1.707 23
7.572 3.9890001 0.477 1
8.1969995 4.322 0.66100001 1
0 0 0 50
9.9259996 5.2519999 1.153 1
11.259 5.9720001 1.51 9
11.143 5.928 1.696 23
7.5510001 4.0549998 0.47299999 1
8.2049999 4.4089999 0.66000003 1
8.9829998 4.8340001 0.88200003 1
10.042 5.414 1.166 1
11.189 6.046 1.501 10
11.048 5.9889998 1.683 23
7.5689998 4.1409998 0.47299999 2
8.2030001 4.4910002 0.65799999 1
9.0150003 4.9419999 0.884 1
10.552 5.796 1.225 2
11.109 6.1170001 1.4910001 10
10.964 6.0549998 1.671 23
7.5830002 4.2259998 0.47099999 1
8.2360001 4.5929999 0.65899998 1
0 0 0 50
10.584 5.9200001 1.229 2
11.01 6.1729999 1.478 11
10.874 6.1149998 1.66 24
7.5879998 4.3049998 0.47 1
8.2530003 4.6849999 0.66000003 1
9.0299997 5.132 0.884 1
10.563 6.0139999 1.226 2
10.924 6.2329998 1.4680001 14
10.797 6.1789999 1.65 24
7.5819998 4.3769999 0.46900001 1
8.2690001 4.777 0.66000003 1
9.0760002 5.2490001 0.889 1
10.61 6.1469998 1.233 3
10.836 6.2909999 1.4579999 21
10.714 6.2379999 1.6390001 24
7.6079998 4.4679999 0.46900001 1
8.283 4.8670001 0.66100001 1
9.1040001 5.355 0.89200002 1
0 0 0 50
10.71 6.3239999 1.443 21
10.637 6.2989998 1.631 24
7.598 4.5370002 0.46799999 1
8.2810001 4.948 0.66000003 1
9.1210003 5.4559999 0.89399999 1
10.519 6.302 1.225 2
10.62 6.3759999 1.433 23
10.554 6.3540001 1.6210001 26
7.6240001 4.6279998 0.46900001 1
8.309 5.046 0.662 1
9.1680002 5.573 0.89999998 1
10.463 6.3709998 1.22 2
10.519 6.4190001 1.4220001 24
10.471 6.4070001 1.612 26
7.638 4.711 0.46900001 1
8.3389997 5.145 0.66500002 1
9.165 5.6609998 0.89999998 1
10.436 6.4559999 1.219 2
10.438 6.4720001 1.415 26
10.396 6.4629998 1.605 25
0 0 0 50
8.3649998 5.244 0.66900003 1
9.1999998 5.7729998 0.90600002 1
10.445 6.5640001 1.224 5
10.36 6.5250001 1.408 27
10.329 6.5229998 1.599 26
7.684 4.8889999 0.47299999 1
8.3879995 5.3379998 0.671 1
9.2530003 5.8940001 0.91299999 1
10.463 6.6750002 1.228 4
10.473 6.6960001 1.427 3
10.335 6.625 1.605 3
7.6960001 4.9689999 0.47400001 1
8.4049997 5.4289999 0.67400002 1
9.2530003 5.9809999 0.91600001 1
10.504 6.8000002 1.237 6
10.545 6.8410001 1.442 10
0 0 0 50
7.704 5.0469999 0.47600001 1
8.4359999 5.527 0.67900002 1
9.316 6.1100001 0.92500001 1
10.471 6.8769999 1.237 5
12.672 8.3409996 1.739 3
10.468 6.9089999 1.638 0
7.7420001 5.1440001 0.47999999 1
8.4499998 5.6149998 0.68199998 1
9.3500004 6.2189999 0.93199998 1
10.334 6.8829999 1.226 14
10.296 6.8720002 1.418 3
10.252 6.862 1.61 1
7.7719998 5.2350001 0.484 1
8.5 5.7259998 0.68900001 1
9.4390001 6.3639998 0.94400001 1
10.435 7.046 1.243 1
13.087 8.8549995 1.8099999 0
0 0 0 0
7.7880001 5.3150001 0.48699999 1
8.5129995 5.8109999 0.69300002 1
9.4429998 6.4520001 0.949 1
10.626 7.27 1.271 1
0 0 0 50
10.927 7.513 1.7309999 1
7.8210001 5.4070001 0.491 1
8.5389996 5.9039998 0.699 1
9.4919996 6.5679998 0.958 1
10.844 7.5139999 1.303 2
10.97 7.618 1.531 11
11.246 7.8309999 1.79 0
7.848 5.493 0.49599999 1
8.6169996 6.0320001 0.70899999 1
9.5839996 6.7140002 0.972 1
10.896 7.6440001 1.316 5
12.181 8.5629997 1.709 0
10.829 7.6350002 1.732 3
7.8779998 5.5799999 0.50099999 1
8.6210003 6.1069999 0.713 1
9.6219997 6.822 0.98199999 1
0 0 0 50
12.281 8.7379999 1.732 1
10.803 7.7090001 1.7359999 21
7.9219999 5.6760001 0.50800002 1
8.6610003 6.2059999 0.722 1
9.6450005 6.9169998 0.99000001 1
10.854 7.796 1.326 1
12.265 8.8290005 1.739 0
15.072 10.88 2.4360001 5
7.9499998 5.7600002 0.51300001 1
8.7130003 6.3140001 0.73100001 1
9.7390003 7.0630002 1.006 1
10.864 7.8909998 1.335 0
12.526 9.118 1.786 1
14.908 10.882 2.4230001 11
7.9790001 5.8429999 0.51899999 1
0 0 0 50
9.7349997 7.1350002 1.013 1
10.988 8.066 1.359 1
0 0 0 0
14.804 10.922 2.4189999 13
8.0039997 5.921 0.52600002 1
8.8170004 6.5229998 0.75099999 1
9.7419996 7.2140002 1.021 1
10.965 8.132 1.365 0
0 0 0 0
14.692 10.952 2.415 14
8.0480003 6.0110002 0.53399998 1
8.8590002 6.618 0.75999999 1
9.9020004 7.4039998 1.045 1
11.175 8.368 1.4 0
23.16 17.382999 3.3640001 0
14.586 10.981 2.4130001 10
0 0 0 50
8.9519997 6.75 0.77499998 1
9.8369999 7.4229999 1.045 1
11.245 8.4989996 1.419 0
23.172001 17.554001 3.388 1
14.495 11.013 2.4119999 7
8.1120005 6.1680002 0.54900002 1
8.9399996 6.7989998 0.78100002 1
9.9540005 7.5770001 1.066 0
11.32 8.6309996 1.438 0
13.038 9.9630003 1.919 0
14.417 11.051 2.414 5
8.1610003 6.257 0.55800003 1
0 0 0 50
10.115 7.763 1.092 0
11.467 8.816 1.467 0
0 0 0 0
14.331 11.077 2.4159999 2
8.2220001 6.3520002 0.56800002 1
9.2819996 7.1729999 0.82499999 1
9.9879999 7.7259998 1.087 0
11.507 8.915 1.483 0
14.212 11.037 2.1199999 2
20.594 16.042999 3.493 26
8.257 6.4250002 0.57700002 1
9.3310003 7.263 0.838 1
9.5889997 7.4699998 1.052 12
0 0 0 50
14.144 11.064 2.1240001 3
20.563999 16.136 3.5109999 18
8.3260002 6.5209999 0.58899999 1
9.2279997 7.23 0.83600003 1
9.6499996 7.5669999 1.067 6
9.5159998 7.4749999 1.245 36
9.4759998 7.4619999 1.432 0
20.552 16.236 3.5309999 11
8.3470001 6.5770001 0.597 1
9.2519999 7.2930002 0.84600002 1
9.6420002 7.6079998 1.076 4
0 0 0 50
9.4700003 7.5029998 1.441 42
9.4110003 7.48 1.626 5
8.3690004 6.631 0.60600001 1
9.4099998 7.4580002 0.86900002 1
9.6590004 7.6630001 1.086 0
9.5939999 7.6240001 1.273 3
9.5240002 7.5879998 1.46 31
9.4099998 7.5219998 1.637 8
8.4379997 6.7179999 0.61699998 1
9.4630003 7.5359998 0.88200003 2
0 0 0 0
0 0 0 0
0 0 0 50
9.4560003 7.5970001 1.655 40
8.4499998 6.7579999 0.625 1
9.4849997 7.5869999 0.89200002 3
0 0 0 0
0 0 0 0
13.937 11.211 2.164 6
9.46 7.6350002 1.666 3
8.5240002 6.842 0.63800001 1
0 0 0 50
0 0 0 0
0 0 0 0
13.919 11.24 2.175 6
20.48 16.597 3.6270001 8
8.5539999 6.8889999 0.648 1
9.4709997 7.6300001 0.90799999 3
0 0 0 0
0 0 0 0
13.863 11.234 2.1800001 6
20.476 16.65 3.6489999 8
8.5819998 6.9289999 0.65700001 1
9.4729996 7.651 0.917 3
0 0 0 0
0 0 0 0
0 0 0 50
20.448 16.673 3.6630001 10
8.592 6.9510002 0.66500002 1
9.507 7.6950002 0.92799997 2
0 0 0 0
22.729 18.457001 3.148 0
13.826 11.258 2.2 5
20.455999 16.716999 3.684 10
8.6689997 7.0229998 0.67799997 1
0 0 0 50
0 0 0 0
22.818001 18.558001 3.1789999 4
13.859 11.303 2.2179999 5
20.469999 16.754999 3.7060001 10
8.7110004 7.0630002 0.68900001 1
9.4949999 7.7030001 0.94199997 1
0 0 0 0
22.809999 18.568001 3.198 3
13.838 11.297 2.227 4
20.417999 16.73 3.714 8
8.7440004 7.092 0.69800001 1
9.4989996 7.7090001 0.94999999 2
0 0 0 0
0 0 0 0
13.851 11.312 2.2409999 3
13.717 11.244 2.507 0
0 0 0 50
9.5059996 7.7119999 0.958 1
23.018 18.698999 2.789 1
22.660999 18.448999 3.211 4
13.866 11.322 2.253 3
20.438999 16.750999 3.7520001 9
8.816 7.1399999 0.71600002 1
9.4770002 7.6810002 0.96100003 1
0 0 0 0
22.705999 18.469999 3.234 3
13.863 11.31 2.263 4
20.422001 16.724001 3.7639999 10
8.8070002 7.1220002 0.722 0
9.5270004 7.71 0.97299999 1
0 0 0 0
0 0 0 50
13.837 11.273 2.267 1
20.426001 16.705 3.779 9
8.8450003 7.138 0.73000002 1
9.5159998 7.684 0.97899997 1
22.893999 18.516001 2.8199999 4
13.769 11.161 1.979 1
13.87 11.276 2.2820001 1
20.414 16.66 3.7880001 9
8.9160004 7.1750002 0.74199998 1
9.5640001 7.7020001 0.98799998 1
0 0 0 50
13.818 11.171 1.993 1
20.57 16.681 3.3959999 11
20.408001 16.613001 3.7969999 9
8.9040003 7.1409998 0.74599999 1
9.5839996 7.6929998 0.99599999 2
0 0 0 0
13.86 11.169 2.006 1
20.589001 16.643 3.4089999 12
9.4219999 7.6459999 1.757 0
8.8900003 7.1030002 0.74900001 1
9.5939999 7.6719999 1.001 2
0 0 0 0
13.996 11.236 2.033 1
0 0 0 50
9.4160004 7.612 1.76 12
8.8979998 7.0780001 0.75400001 1
9.5900002 7.6350002 1.005 2
23.027 18.362 2.8800001 0
9.5270004 7.6139998 1.387 2
9.4689999 7.592 1.574 33
9.4379997 7.5960002 1.767 7
8.9350004 7.072 0.75999999 0
9.6569996 7.6500001 1.016 1
9.6020002 7.619 1.205 2
9.5410004 7.5879998 1.392 28
0 0 0 50
9.3649998 7.5009999 1.755 38
8.9799995 7.0679998 0.76700002 1
9.677 7.6230001 1.021 2
9.6129999 7.585 1.2079999 8
9.4860001 7.5029998 1.386 61
9.4560003 7.5029998 1.577 2
9.4060001 7.493 1.765 1
9.0120001 7.0500002 0.773 1
9.6420002 7.5500002 1.02 11
9.5200005 7.467 1.199 28
9.5319996 7.494 1.3940001 0
14.164 11.171 2.3640001 1
20.462999 16.202 3.8410001 13
9 6.9949999 0.77399999 1
9.6079998 7.474 1.018 5
0 0 0 0
0 0 0 50
14.234 11.153 2.3770001 1
20.437 16.076 3.8380001 14
8.9790001 6.9289999 0.77399999 1
9.8870001 7.6370001 1.049 0
23.073999 17.853001 2.911 3
0 0 0 0
14.211 11.056 2.372 3
20.466 15.984 3.842 14
8.9499998 6.8540001 0.773 1
9.9619999 7.6360002 1.058 0
11.217 8.6129999 1.416 0
0 0 0 0
0 0 0 50
20.450001 15.851 3.835 14
8.9160004 6.7729998 0.76999998 0
9.8050003 7.4549999 1.041 0
11.426 8.7019997 1.441 1
23.048 17.596001 3.3729999 2
14.425 11.047 2.405 5
20.448999 15.721 3.829 13
8.8870001 6.6919999 0.76800001 1
9.8879995 7.454 1.05 1
11.296 8.5290003 1.423 0
23.025 17.424 3.3640001 3
0 0 0 50
20.448999 15.584 3.8239999 13
8.908 6.6469998 0.76899999 0
9.9020004 7.3959999 1.05 1
11.199 8.3780003 1.41 0
0 0 0 0
14.599 10.981 2.425 9
20.459999 15.448 3.819 13
8.8979998 6.5760002 0.76700002 0
9.8190002 7.2639999 1.039 0
23.254 17.231001 2.921 3
12.753 9.4709997 1.8559999 0
0 0 0 50
20.423 15.272 3.802 13
8.8479996 6.473 0.76099998 0
9.8769999 7.2329998 1.043 0
11.163 8.1890001 1.398 0
15.012 11.037 2.1800001 1
14.821 10.929 2.4489999 12
14.906 11.033 2.766 8
8.823 6.388 0.75800002 1
9.8509998 7.138 1.0369999 1
11.003 7.9860001 1.374 0
15.141 11.014 2.1919999 1
0 0 0 50
18.552 13.585 3.4319999 5
8.7889996 6.2940001 0.75199997 1
9.7589998 6.994 1.024 0
10.995 7.8920002 1.368 1
0 0 0 0
15.062 10.868 2.4719999 9
18.514999 13.409 3.4119999 10
8.7469997 6.1929998 0.74599999 1
9.7220001 6.8889999 1.016 1
10.979 7.7909999 1.3609999 1
0 0 0 50
10.781 7.6900001 1.763 34
10.662 7.6329999 1.957 0
8.7329998 6.1090002 0.741 1
9.6999998 6.7919998 1.0089999 0
10.918 7.6570001 1.348 7
12.634 8.8789997 1.807 0
10.84 7.6409998 1.7640001 13
10.808 7.645 1.975 12
8.6750002 5.9959998 0.73199999 1
9.6269999 6.658 0.99699998 0
0 0 0 50
11.222 7.79 1.597 2
14.641 10.191 2.372 3
18.604 12.995 3.3840001 2
8.665 5.9130001 0.727 0
9.5780001 6.5419998 0.986 1
10.718 7.3309999 1.309 1
11.006 7.5430002 1.558 5
13.053 8.9720001 2.1040001 2
12.96 8.9379997 2.345 6
8.625 5.8099999 0.71899998 1
9.5459995 6.4359999 0.977 0
10.58 7.1430001 1.286 1
0 0 0 50
14.675 9.9530001 2.352 1
10.141 6.901 1.825 6
8.5889997 5.7090001 0.71100003 0
9.4650002 6.296 0.96200001 0
10.336 6.8839998 1.247 5
10.283 6.8629999 1.439 3
10.201 6.8260002 1.625 1
12.583 8.4469995 2.2520001 14
8.5310001 5.5929999 0.70099998 1
9.4379997 6.1919999 0.95300001 1
10.515 6.9070001 1.261 3
12.564 8.2690001 1.747 2
10.405 6.8649998 1.648 0
0 0 0 50
8.4729996 5.4770002 0.69 1
9.3210001 6.0279999 0.93400002 1
10.542 6.8270001 1.256 8
10.531 6.8330002 1.455 59
10.462 6.8049998 1.647 35
10.391 6.7800002 1.837 11
8.434 5.3740001 0.68099999 0
9.2519999 5.8979998 0.91900003 1
10.498 6.7010002 1.2410001 5
10.421 6.6630001 1.429 3
10.318 6.6129999 1.613 3
10.281 6.6100001 1.806 10
8.3859997 5.2639999 0.671 1
0 0 0 50
10.458 6.5749998 1.226 6
10.361 6.5250001 1.411 28
10.327 6.5190001 1.602 28
10.316 6.5310001 1.799 29
8.3290005 5.1490002 0.66000003 1
9.1160002 5.638 0.89099997 1
10.45 6.4689999 1.216 2
10.432 6.4699998 1.41 27
10.404 6.4660001 1.603 27
10.387 6.474 1.799 28
8.3070002 5.0560002 0.65100002 1
9.1049995 5.5440001 0.88099998 1
10.458 6.3730001 1.206 2
10.528 6.427 1.411 25
10.479 6.4099998 1.602 27
10.444 6.4070001 1.795 29
0 0 0 50
9.0299997 5.4109998 0.866 1
10.466 6.277 1.196 2
10.647 6.395 1.415 19
10.561 6.3569999 1.602 26
10.514 6.3460002 1.794 28
8.1890001 4.8270001 0.62800002 1
8.9569998 5.2800002 0.85000002 1
10.438 6.1589999 1.182 2
10.755 6.355 1.4170001 14
0 0 0 50
10.602 6.2930002 1.795 29
8.1350002 4.7160001 0.61699998 1
8.8940001 5.1570001 0.83600003 1
10.441 6.059 1.1720001 2
10.865 6.3140001 1.419 13
10.719 6.2399998 1.599 26
10.689 6.2379999 1.795 27
8.0780001 4.6040001 0.60500002 1
8.8389997 5.039 0.82099998 1
0 0 0 50
10.938 6.2470002 1.416 11
10.809 6.1849999 1.599 26
10.763 6.1739998 1.793 27
7.994 4.4790001 0.59100002 1
8.7729998 4.9159999 0.80699998 1
9.6479998 5.4089999 1.061 1
10.998 6.1739998 1.411 9
10.886 6.1209998 1.596 26
10.857 6.118 1.794 27
7.9499998 4.3759999 0.57999998 1
8.6949997 4.7859998 0.79000002 1
0 0 0 50
10.956 6.0409999 1.392 3
10.981 6.0640001 1.596 26
10.946 6.059 1.793 27
7.9039998 4.2740002 0.56999999 1
8.6339998 4.6680002 0.77600002 1
9.4910002 5.1339998 1.023 1
10.968 5.9400001 1.38 2
0 0 0 50
11.031 5.9949999 1.791 27
7.8530002 4.1700001 0.55800003 1
8.5559998 4.5430002 0.75999999 1
9.3990002 4.9920001 1.002 1
10.87 5.7779999 1.355 2
11.223 5.974 1.602 21
11.12 5.9310002 1.791 26
7.7930002 4.0609999 0.546 1
8.4949999 4.427 0.745 1
0 0 0 50
10.931 5.7020001 1.349 2
11.336 5.9200001 1.603 14
11.191 5.8559999 1.786 18
7.7280002 3.9519999 0.53399998 1
8.4169998 4.303 0.72899997 1
9.2089996 4.7090001 0.96100003 1
10.325 5.283 1.261 1
11.427 5.8540001 1.601 21
11.297 5.7979999 1.7869999 26
7.6950002 3.8599999 0.52399999 1
8.3380003 4.1820002 0.713 1
9.1630001 4.5949998 0.94499999 1
0 0 0 50
11.505 5.7789998 1.597 12
11.383 5.7270002 1.784 26
7.6389999 3.7579999 0.51300001 1
8.2860003 4.0749998 0.69999999 1
9.0860004 4.4679999 0.92699999 1
10.069 4.9530001 1.205 1
11.512 5.6690001 1.582 4
11.476 5.6599998 1.783 22
7.6009998 3.6659999 0.50199997 1
8.2209997 3.9630001 0.68599999 1
0 0 0 50
9.9239998 4.7849998 1.176 1
11.517 5.5580001 1.568 2
11.597 5.6040001 1.786 21
7.5539999 3.5699999 0.49200001 1
8.151 3.849 0.671 1
8.9099998 4.2069998 0.889 1
9.8360004 4.6459999 1.153 1
11.374 5.375 1.534 2
11.749 5.5599999 1.7920001 15
0 0 0 50
8.0889997 3.7409999 0.65700001 1
8.8179998 4.0770001 0.87 1
9.7320004 4.5 1.1289999 1
11.292 5.2249999 1.508 2
11.876 5.5009999 1.795 13
7.4520001 3.3770001 0.47 1
8.0459995 3.6429999 0.64499998 1
8.7550001 3.9619999 0.85299999 1
9.658 4.3709998 1.108 1
10.697 4.8429999 1.414 1
11.985 5.4320002 1.795 21
0 0 0 50
7.9780002 3.5339999 0.63099998 1
8.6739998 3.8410001 0.83499998 1
9.5500002 4.2290001 1.084 1
10.594 4.6929998 1.387 1
12.071 5.3530002 1.7920001 10
7.3649998 3.197 0.44999999 1
7.9299998 3.438 0.61900002 1
8.6219997 3.7360001 0.82099998 1
9.4779997 4.105 1.0650001 1
10.508 4.552 1.363 1
12.123 5.2550001 1.783 7
0 0 0 50
7.8800001 3.3410001 0.60699999 1
8.5539999 3.6229999 0.80500001 1
9.3889999 3.9749999 1.044 1
10.379 4.395 1.3329999 1
12.045 5.1040001 1.756 3
7.2810001 3.0209999 0.43099999 1
7.8169999 3.2390001 0.59399998 1
8.5 3.5190001 0.79000002 1
9.2889996 3.8440001 1.023 1
10.284 4.256 1.308 1
12.04 4.9850001 1.74 3
7.2290001 2.9319999 0.421 1
0 0 0 50
8.4280005 3.4100001 0.77499998 1
9.2139997 3.7249999 1.003 1
10.17 4.1100001 1.281 1
12.018 4.8590002 1.721 3
7.1929998 2.8499999 0.412 1
7.7150002 3.0510001 0.57099998 1
8.3450003 3.296 0.75800002 1
9.1260004 3.602 0.98400003 1
10.047 3.964 1.2539999 1
11.184 4.4130001 1.587 1
7.1539998 2.767 0.403 1
7.658 2.957 0.55900002 1
8.3079996 3.2030001 0.74599999 1
9.0500002 3.4860001 0.96600002 1
9.9870005 3.845 1.235 1
0 0 0 50
7.105 2.6819999 0.39399999 1
7.6160002 2.869 0.54900002 1
8.2440004 3.1010001 0.73199999 1
8.9820004 3.3740001 0.949 1
9.8769999 3.7090001 1.21 1
10.944 4.1079998 1.527 1
7.0669999 2.6010001 0.38600001 1
7.5760002 2.783 0.53899997 2
8.1739998 2.9979999 0.71799999 1
8.9110003 3.2639999 0.93199998 1
9.783 3.5810001 1.188 1
0 0 0 50
7.0190001 2.52 0.377 1
7.5289998 2.6960001 0.52899998 2
8.1199999 2.9030001 0.70499998 1
8.8559999 3.161 0.917 1
9.7049999 3.46 1.168 1
10.743 3.829 1.474 1
6.9910002 2.4449999 0.37 1
7.4860001 2.6110001 0.51899999 2
8.0810003 2.813 0.69400001 1
8.7869997 3.0539999 0.90100002 1
9.6110001 3.3369999 1.146 1
10.626 3.687 1.446 1
6.3099999 2.148 0.32800001 16
0 0 0 50
6.2410002 2.115 0.52999997 28
8.7189999 2.9489999 0.88499999 1
9.533 3.2190001 1.127 1
10.502 3.5439999 1.4170001 1
6.243 2.0680001 0.31999999 35
6.1890001 2.0450001 0.419 54
6.1939998 2.0420001 0.52100003 49
6.2880001 2.0680001 0.63200003 14
9.4580002 3.1059999 1.108 1
10.395 3.4100001 1.392 1
6.211 2.0020001 0.31299999 54
0 0 0 50
6.177 1.979 0.514 59
6.2550001 2 0.62300003 23
9.3719997 2.9920001 1.089 1
10.358 3.302 1.376 1
6.2199998 1.948 0.30899999 52
6.1849999 1.931 0.40799999 80
6.1890001 1.927 0.50999999 65
6.2519999 1.942 0.61699998 37
9.302 2.8829999 1.073 1
10.223 3.165 1.348 1
6.2410002 1.899 0.30599999 51
0 0 0 50
6.21 1.877 0.50700003 65
6.2680001 1.89 0.61400002 41
9.2259998 2.777 1.0549999 1
10.162 3.053 1.331 1
6.2729998 1.853 0.303 48
6.2319999 1.834 0.40200001 62
6.2329998 1.829 0.50300002 64
6.2989998 1.8430001 0.61199999 29
9.1719999 2.678 1.041 1
10.062 2.931 1.309 1
6.329 1.813 0.30199999 31
6.2719998 1.79 0.40000001 54
0 0 0 50
6.3800001 1.809 0.61500001 7
9.1219997 2.5799999 1.028 1
9.9910002 2.8199999 1.291 1
6.6100001 1.835 0.31099999 1
6.355 1.757 0.40099999 18
6.3969998 1.762 0.50700003 15
8.3269997 2.2869999 0.796 1
9.0340004 2.474 1.011 1
0 0 0 50
6.7010002 1.802 0.31099999 1
7.1409998 1.911 0.44600001 1
7.6820002 2.0480001 0.60399997 1
8.2779999 2.1989999 0.78500003 1
9.0050001 2.3840001 1.001 1
9.8389997 2.598 1.255 1
6.6900001 1.74 0.30700001 1
7.1110001 1.841 0.44 1
7.6420002 1.97 0.59600002 2
8.2259998 2.112 0.77499998 1
8.9569998 2.293 0.98900002 1
0 0 0 50
6.6529999 1.6720001 0.301 1
7.0869999 1.773 0.435 1
7.6079998 1.8940001 0.58899999 1
8.1940002 2.0320001 0.76599997 1
8.8900003 2.197 0.97600001 1
9.71 2.391 1.224 1
6.6209998 1.607 0.296 1
7.059 1.704 0.42899999 1
7.5809999 1.822 0.58200002 1
8.1660004 1.954 0.759 1
8.8450003 2.108 0.96499997 1
9.6400003 2.289 1.209 1
0 0 0 50
7.026 1.636 0.42300001 1
7.5479999 1.749 0.57499999 1
8.1239996 1.873 0.75 1
8.7799997 2.0150001 0.95300001 1
9.5790005 2.1900001 1.1950001 1
6.5809999 1.484 0.28799999 1
7.0139999 1.572 0.419 1
7.5229998 1.677 0.56999999 1
8.0790005 1.7920001 0.74199998 1
0 0 0 50
9.5389996 2.0969999 1.184 1
6.5599999 1.423 0.285 2
6.9889998 1.506 0.414 1
7.4920001 1.6059999 0.56400001 1
8.0480003 1.715 0.73500001 1
8.7049999 1.846 0.935 1
9.493 2.0039999 1.173 1
6.539 1.363 0.28099999 1
6.973 1.444 0.41 1
7.467 1.5369999 0.55900002 1
8.0200005 1.641 0.72799999 1
0 0 0 50
9.4219999 1.9069999 1.159 1
6.5289998 1.306 0.278 2
6.9520001 1.381 0.40700001 1
7.448 1.469 0.55400002 1
7.9819999 1.5650001 0.722 1
8.6289997 1.682 0.91900003 2
9.3920002 1.821 1.151 1
6.5100002 1.247 0.27500001 3
6.914 1.3150001 0.40200001 1
7.4070001 1.399 0.54799998 1
7.954 1.492 0.71600002 1
8.5939999 1.602 0.91100001 1
9.3529997 1.732 1.142 1
6.4920001 1.189 0.273 3
6.8979998 1.2539999 0.39899999 1
7.381 1.331 0.54400003 1
7.9320002 1.42 0.71100003 1
8.559 1.522 0.90399998 1
9.6750002 1.709 1.178 4
0 0 0 50
6.8889999 1.194 0.396 1
7.3569999 1.265 0.54000002 1
7.914 1.35 0.70700002 1
8.5419998 1.447 0.89999998 1
9.6739998 1.627 1.174 5
6.4559999 1.075 0.26800001 3
6.862 1.133 0.39300001 1
7.3400002 1.201 0.537 1
7.8800001 1.278 0.70200002 1
8.5010004 1.368 0.89300001 1
9.6490002 1.54 1.168 4
0 0 0 50
6.849 1.074 0.391 1
7.3280001 1.138 0.53399998 1
7.8559999 1.209 0.69700003 1
7.8940001 1.204 0.82700002 0
7.6149998 1.152 0.92000002 0
6.434 0.96499997 0.264 2
6.835 1.015 0.38800001 1
7.3039999 1.073 0.53100002 1
7.7399998 1.126 0.685 0
7.6199999 1.098 0.796 3
7.566 1.081 0.912 4
6.4109998 0.90899998 0.26199999 2
6.8249998 0.95700002 0.38699999 1
7.2909999 1.011 0.528 1
7.6830001 1.054 0.67900002 0
7.6090002 1.034 0.79400003 8
7.5710001 1.018 0.91100001 5
6.4000001 0.80400002 0.26100001 3
6.8049998 0.84399998 0.384 1
7.2649999 0.889 0.52499998 1
7.7610002 0.93800002 0.68400002 1
7.7280002 0.92199999 0.80400002 0
9.6470003 1.138 1.158 5
0 0 0 50
6.7859998 0.78600001 0.38299999 1
7.2410002 0.82700002 0.523 2
7.7670002 0.87599999 0.68400002 1
8.382 0.93199998 0.87099999 2
9.632 1.057 1.155 5
5.355 0.58700001 0.21799999 58
5.586 0.602 0.315 11
7.243 0.76999998 0.523 1
7.7550001 0.81199998 0.68199998 2
8.368 0.86299998 0.87 2
9.5839996 0.97399998 1.149 5
5.348 0.54299998 0.21699999 67
5.6100001 0.56 0.31600001 10
6.3610001 0.62400001 0.45899999 2
7.7490001 0.74800003 0.68199998 2
8.3450003 0.79299998 0.86699998 2
9.5270004 0.88999999 1.142 5
5.342 0.5 0.21699999 65
5.5770001 0.51300001 0.31400001 11
5.9720001 0.53899997 0.43099999 9
7.7340002 0.685 0.68099999 1
8.3290005 0.72399998 0.86500001 2
9.4700003 0.80800003 1.136 4
5.336 0.45699999 0.21699999 61
5.5780001 0.46799999 0.315 11
5.9619999 0.49000001 0.43000001 8
7.7189999 0.62199998 0.68000001 1
8.323 0.65700001 0.86500001 2
9.415 0.72799999 1.1289999 4
5.3309999 0.41499999 0.21799999 62
5.5700002 0.42399999 0.315 11
5.9629998 0.44400001 0.43099999 7
7.7199998 0.56099999 0.68000001 1
8.3149996 0.58999997 0.86500001 2
9.3430004 0.648 1.1210001 4
5.3239999 0.373 0.21799999 64
5.566 0.38 0.315 11
5.9559999 0.396 0.43099999 7
7.7059999 0.49900001 0.68000001 1
8.3280001 0.52499998 0.86799997 2
9.2889996 0.56999999 1.1160001 4
5.3239999 0.331 0.219 95
5.5619998 0.336 0.31600001 11
5.9590001 0.34900001 0.43200001 6
7.6999998 0.43799999 0.68099999 1
8.3730001 0.46200001 0.87300003 2
9.2469997 0.49399999 1.112 4
5.316 0.28999999 0.219 90
5.5609999 0.29300001 0.317 11
5.941 0.30199999 0.43200001 7
7.7010002 0.37900001 0.68199998 1
8.8640003 0.41999999 0.926 4
9.1789999 0.419 1.1059999 4
5.3080001 0.248 0.22 66
5.5549998 0.25 0.317 11
5.9439998 0.257 0.433 7
7.6810002 0.31799999 0.68199998 2
8.8719997 0.35100001 0.92900002 4
9.1459999 0.345 1.104 3
5.3629999 0.20999999 0.223 8
5.5469999 0.207 0.31799999 11
5.9310002 0.211 0.43399999 6
7.6859999 0.259 0.68400002 1
8.8409996 0.28200001 0.92799997 4
9.132 0.27399999 1.104 3
5.6430001 0.178 0.236 11
5.7210002 0.17 0.329 11
5.9260001 0.16500001 0.435 9
7.6880002 0.2 0.68599999 1
8.7959995 0.213 0.92500001 4
9.1059999 0.20299999 1.104 3
5.9169998 0.142 0.249 9
6.3060002 0.14 0.36500001 3
7.164 0.145 0.52700001 1
7.6929998 0.142 0.68900001 2
8.7860003 0.146 0.926 4
9.0900002 0.133 1.104 3
6.3260002 0.104 0.26800001 3
6.7220001 0.097999997 0.38999999 1
7.152 0.090999998 0.52899998 2
7.6960001 0.083999999 0.69099998 2
8.7589998 0.078000002 0.926 4
9.0609999 0.064000003 1.103 3
6.3330002 0.057999998 0.27000001 3
6.711 0.048 0.39199999 1
7.145 0.037999999 0.52999997 2
7.6919999 0.025 0.69300002 2
8.724 0.013 0.92500001 4
9.066 -0.0040000002 1.107 3
6.3299999 0.0099999998 0.27200001 3
6.711 -0.001 0.39399999 1
7.152 -0.015 0.53299999 2
7.7140002 -0.030999999 0.69700003 2
8.7220001 -0.052000001 0.92799997 4
9.0749998 -0.072999999 1.112 4
6.329 -0.035 0.27399999 4
6.71 -0.050999999 0.396 1
7.164 -0.068000004 0.53600001 2
7.737 -0.089000002 0.70200002 2
8.7049999 -0.118 0.92900002 4
9.0640001 -0.141 1.114 8
6.323 -0.082000002 0.27599999 3
6.7140002 -0.1 0.398 1
7.1609998 -0.121 0.53899997 2
7.6960001 -0.146 0.70099998 2
8.665 -0.18099999 0.92799997 4
9.0380001 -0.208 1.114 12
6.3270001 -0.12800001 0.278 3
6.7119999 -0.15000001 0.40099999 1
7.158 -0.17399999 0.54100001 2
7.928 -0.20900001 0.72500002 3
8.6379995 -0.245 0.92900002 4
8.9989996 -0.27399999 1.113 17
6.3330002 -0.17399999 0.28 3
6.7160001 -0.198 0.403 1
7.1630001 -0.226 0.54400003 1
8.0319996 -0.27000001 0.73799998 3
8.6009998 -0.30700001 0.92799997 4
8.9610004 -0.33899999 1.112 19
6.3299999 -0.22 0.28200001 4
6.7189999 -0.24699999 0.40599999 1
7.1589999 -0.278 0.546 1
8.1219997 -0.333 0.75 3
8.5799999 -0.36899999 0.93000001 4
8.9099998 -0.40200001 1.109 18
6.3369999 -0.266 0.285 3
6.7270002 -0.296 0.40900001 3
7.1599998 -0.33000001 0.54900002 1
8.1829996 -0.39399999 0.759 4
8.5290003 -0.42899999 0.92799997 3
8.8629999 -0.465 1.108 22
6.348 -0.31200001 0.28799999 3
6.7270002 -0.345 0.412 1
7.1690001 -0.382 0.55299997 2
8.1260004 -0.44999999 0.75700003 3
8.4589996 -0.48699999 0.92400002 3
8.823 -0.52700001 1.107 26
6.3379998 -0.35600001 0.28999999 3
6.73 -0.39300001 0.41499999 1
7.1880002 -0.43399999 0.55699998 1
8.1920004 -0.51300001 0.76700002 4
0 0 0 50
8.7700005 -0.58700001 1.104 23
6.349 -0.40200001 0.29300001 3
6.7319999 -0.44 0.417 2
7.197 -0.486 0.56099999 2
8.1789999 -0.56999999 0.76899999 4
8.4440002 -0.60600001 0.93000001 3
8.7209997 -0.64600003 1.102 22
6.349 -0.44600001 0.296 3
6.73 -0.486 0.41999999 1
0 0 0 50
7.7880001 -0.59600002 0.73500001 2
7.6630001 -0.60399997 0.847 1
8.6759996 -0.70300001 1.1 21
6.348 -0.49000001 0.29800001 2
6.7459998 -0.53399998 0.42399999 1
7.211 -0.58700001 0.56800002 2
8.1700001 -0.68300003 0.77499998 4
8.3979998 -0.72100002 0.93199998 3
6.8670001 -0.60500002 0.87400001 13
6.362 -0.53500003 0.301 3
6.7389998 -0.57999998 0.426 1
7.244 -0.639 0.574 2
8.1529999 -0.73799998 0.77700001 4
7.007 -0.64999998 0.78100002 4
6.677 -0.63499999 0.85299999 100
6.3540001 -0.57700002 0.303 2
6.7420001 -0.62699997 0.42899999 1
0 0 0 50
8.1210003 -0.79100001 0.77700001 4
6.6630001 -0.66399997 0.74599999 23
6.6479998 -0.67799997 0.852 51
6.3569999 -0.62 0.30599999 3
6.6719999 -0.66500002 0.42699999 1
6.6690001 -0.67900002 0.53399998 5
6.6630001 -0.69400001 0.63999999 9
6.5999999 -0.70200002 0.741 78
6.6030002 -0.71799999 0.84899998 52
6.3639998 -0.66399997 0.308 2
6.7490001 -0.71799999 0.43399999 1
7.2680001 -0.78899997 0.58499998 1
8.1289997 -0.90100002 0.78500003 4
6.5960002 -0.74599999 0.74400002 90
0 0 0 50
6.368 -0.70599997 0.31099999 4
6.7529998 -0.764 0.43700001 1
7.3759999 -0.85000002 0.59600002 3
8.0799999 -0.949 0.78399998 4
6.6009998 -0.79100001 0.74699998 94
6.6129999 -0.80800003 0.85699999 40
6.3649998 -0.74800003 0.31299999 4
6.7649999 -0.80900002 0.44100001 1
7.4629998 -0.90899998 0.60600001 3
0 0 0 50
6.6100001 -0.83499998 0.75099999 91
6.6290002 -0.85299999 0.86199999 31
6.3709998 -0.79000002 0.315 3
6.7589998 -0.852 0.442 3
7.5 -0.96200001 0.61199999 3
8.052 -1.051 0.787 3
6.6079998 -0.87800002 0.75300002 90
6.6350002 -0.898 0.86500001 39
6.3800001 -0.83200002 0.31799999 4
0 0 0 50
7.5960002 -1.023 0.62199998 3
8.0369997 -1.101 0.78799999 3
6.6160002 -0.92199999 0.75700003 90
6.6240001 -0.93900001 0.866 38
6.381 -0.87300003 0.31999999 4
6.7540002 -0.93800002 0.447 1
7.6209998 -1.076 0.62699997 3
7.9899998 -1.146 0.787 3
0 0 0 50
6.6329999 -0.98299998 0.87 40
6.369 -0.91100001 0.32100001 3
6.7659998 -0.98299998 0.449 1
7.638 -1.126 0.63099998 3
7.9549999 -1.191 0.78600001 3
6.6259999 -1.007 0.76300001 92
6.632 -1.024 0.87199998 43
6.3709998 -0.95099998 0.32300001 4
6.7649999 -1.024 0.45100001 1
7.6690001 -1.178 0.63499999 3
0 0 0 50
6.6259999 -1.048 0.76499999 86
6.638 -1.066 0.875 43
6.3670001 -0.98900002 0.324 4
6.7719998 -1.066 0.45300001 1
7.6690001 -1.224 0.63700002 3
7.8769999 -1.275 0.78299999 3
6.6409998 -1.091 0.76800001 89
6.6560001 -1.11 0.88 50
6.3740001 -1.028 0.32600001 4
6.7750001 -1.108 0.45500001 1
7.289 -1.2079999 0.60699999 2
7.7360001 -1.3 0.77100003 1
0 0 0 50
6.6570001 -1.15 0.88200003 57
6.362 -1.064 0.32600001 3
6.7750001 -1.148 0.456 1
7.6339998 -1.3099999 0.63800001 3
7.8709998 -1.369 0.78600001 3
6.6440001 -1.171 0.77200001 83
6.6490002 -1.188 0.88200003 62
6.3649998 -1.102 0.32800001 4
6.7880001 -1.1900001 0.458 1
7.6469998 -1.357 0.63999999 3
7.8579998 -1.4119999 0.78600001 2
6.6440001 -1.21 0.773 77
6.665 -1.23 0.88599998 70
6.3579998 -1.137 0.32800001 4
6.8010001 -1.2309999 0.46000001 1
7.6479998 -1.401 0.64099997 3
