# .PCD v0.7 - Point Cloud Data file format
VERSION 0.7
FIELDS x y z intensity
SIZE 4 4 4 4
TYPE F F F F
COUNT 1 1 1 1
WIDTH 1610
HEIGHT 1
VIEWPOINT 0 0 0 1 0 0 0
POINTS 1610
DATA ascii
3.309 1.003 -0.69099998 6
3.418 1.031 -0.65600002 5
3.55 1.066 -0.62199998 7
3.6630001 1.095 -0.58200002 5
3.7920001 1.13 -0.54000002 5
0 0 0 50
3.3169999 0.977 -0.69099998 5
3.425 1.0039999 -0.65600002 5
3.5450001 1.034 -0.62 6
3.677 1.068 -0.583 6
3.822 1.1059999 -0.54400003 7
3.2 0.92000002 -0.72000003 5
3.312 0.94700003 -0.68900001 5
3.4200001 0.97299999 -0.65399998 5
3.5350001 1.001 -0.61799997 5
3.6700001 1.035 -0.58099997 6
3.813 1.0700001 -0.542 7
3.2079999 0.89499998 -0.72100002 5
3.3050001 0.917 -0.68699998 5
3.408 0.94 -0.65100002 5
3.55 0.97500002 -0.62 5
3.6760001 1.005 -0.58200002 5
3.809 1.0369999 -0.54100001 7
3.2060001 0.86699998 -0.71899998 5
3.3050001 0.88800001 -0.68599999 5
3.4330001 0.91799998 -0.65499997 6
3.5339999 0.94 -0.616 5
0 0 0 0
3.8050001 1.003 -0.54000002 7
3.1960001 0.83600003 -0.71600002 7
3.3050001 0.86000001 -0.685 5
3.4319999 0.88800001 -0.65399998 6
3.5420001 0.91100001 -0.61699998 6
3.675 0.94099998 -0.57999998 6
0 0 0 50
3.2049999 0.81099999 -0.71700001 6
3.302 0.83099997 -0.68400002 5
3.424 0.85600001 -0.65200001 6
3.5350001 0.87900001 -0.61500001 5
3.6670001 0.90799999 -0.579 6
3.8050001 0.93699998 -0.53899997 7
3.198 0.78200001 -0.71499997 5
3.3010001 0.80199999 -0.68300003 5
3.4170001 0.82499999 -0.64999998 5
3.497 0.83899999 -0.60799998 4
3.661 0.87400001 -0.57700002 6
3.7909999 0.90100002 -0.537 6
3.1960001 0.75400001 -0.71399999 5
3.3010001 0.773 -0.68199998 5
3.415 0.79500002 -0.64899999 5
3.526 0.81599998 -0.61299998 5
3.651 0.83999997 -0.57499999 5
3.799 0.87 -0.53799999 7
3.2 0.727 -0.71399999 5
3.3080001 0.74599999 -0.68300003 5
3.4189999 0.76599997 -0.64999998 5
3.53 0.78600001 -0.61299998 6
3.6489999 0.80800003 -0.57499999 5
3.796 0.83600003 -0.537 7
3.1949999 0.69800001 -0.71200001 5
3.2969999 0.71499997 -0.68000001 5
3.4200001 0.73699999 -0.64899999 5
3.5220001 0.75400001 -0.611 6
3.655 0.77700001 -0.57599998 6
3.7820001 0.80000001 -0.53500003 7
3.1960001 0.67000002 -0.71200001 5
3.2950001 0.68599999 -0.67900002 5
3.4219999 0.70700002 -0.64899999 5
3.533 0.72500002 -0.61299998 5
3.6659999 0.74800003 -0.57700002 5
3.7880001 0.76800001 -0.53600001 6
3.1989999 0.61500001 -0.71200001 4
3.2909999 0.62800002 -0.67799997 5
3.4070001 0.64499998 -0.64600003 5
3.5339999 0.66399997 -0.61299998 5
3.6500001 0.68099999 -0.57499999 6
3.776 0.69999999 -0.53500003 7
3.1849999 0.58499998 -0.708 5
3.2869999 0.59799999 -0.67699999 5
3.4119999 0.616 -0.64700001 5
3.536 0.634 -0.61299998 5
3.635 0.64700001 -0.57200003 6
3.7709999 0.66600001 -0.53399998 7
3.187 0.55699998 -0.70899999 5
3.286 0.56999999 -0.67699999 5
3.4119999 0.58700001 -0.64700001 5
3.5090001 0.59799999 -0.60799998 6
3.631 0.61500001 -0.57200003 6
3.7690001 0.634 -0.53399998 7
3.191 0.52999997 -0.70899999 5
3.2909999 0.542 -0.67699999 4
3.395 0.55400002 -0.64300001 5
3.4990001 0.56599998 -0.60699999 5
3.6329999 0.583 -0.57200003 6
3.7679999 0.60000002 -0.53399998 7
0 0 0 50
3.2839999 0.51200002 -0.676 5
3.402 0.52600002 -0.64499998 5
3.5050001 0.537 -0.60799998 5
3.631 0.551 -0.57200003 5
3.7539999 0.565 -0.53200001 7
3.1830001 0.47299999 -0.70700002 4
3.2809999 0.48300001 -0.67500001 4
3.3929999 0.49399999 -0.64300001 5
3.5 0.505 -0.60699999 6
3.6210001 0.51800001 -0.56999999 6
3.75 0.53100002 -0.53200001 8
3.1719999 0.44400001 -0.704 4
3.273 0.45300001 -0.67299998 4
3.3929999 0.465 -0.64300001 4
3.5009999 0.47499999 -0.60699999 5
3.622 0.486 -0.56999999 5
3.747 0.498 -0.53100002 6
3.175 0.41600001 -0.70499998 4
3.2780001 0.42500001 -0.67400002 4
3.3889999 0.43399999 -0.64200002 4
3.4920001 0.44299999 -0.60600001 5
3.6289999 0.456 -0.57200003 5
3.7420001 0.465 -0.53100002 6
3.1689999 0.38800001 -0.704 5
3.2709999 0.396 -0.67299998 4
3.372 0.403 -0.639 4
3.507 0.414 -0.60799998 4
3.619 0.42300001 -0.56999999 6
3.7379999 0.43200001 -0.52999997 8
3.1630001 0.36000001 -0.70200002 5
3.2539999 0.36500001 -0.66900003 4
3.3870001 0.375 -0.64200002 4
3.477 0.38 -0.60299999 4
3.6040001 0.38999999 -0.56800002 5
0 0 0 50
3.158 0.33199999 -0.70099998 6
3.2509999 0.33700001 -0.66900003 4
3.3710001 0.34400001 -0.639 5
3.474 0.34999999 -0.60299999 6
3.596 0.35699999 -0.56699997 5
3.73 0.36500001 -0.52999997 6
3.158 0.30399999 -0.70099998 4
3.279 0.31099999 -0.67400002 4
3.3789999 0.315 -0.63999999 5
3.487 0.32100001 -0.60500002 5
3.5969999 0.32600001 -0.56699997 6
3.721 0.33199999 -0.52899998 8
3.1719999 0.278 -0.704 4
3.2620001 0.28099999 -0.671 4
3.375 0.285 -0.63999999 4
3.473 0.289 -0.602 4
3.605 0.29499999 -0.56900001 5
3.72 0.29899999 -0.52899998 8
3.164 0.249 -0.70200002 4
3.2579999 0.25099999 -0.67000002 4
3.3740001 0.25600001 -0.639 4
3.4760001 0.25799999 -0.60299999 5
3.6029999 0.26300001 -0.56800002 5
3.727 0.26699999 -0.52999997 5
3.1570001 0.221 -0.69999999 4
3.2590001 0.223 -0.67000002 4
3.372 0.226 -0.639 5
3.474 0.228 -0.60299999 5
3.592 0.23100001 -0.56699997 5
3.7249999 0.234 -0.52899998 6
0 0 0 50
3.2509999 0.19400001 -0.66799998 4
3.3699999 0.19599999 -0.63800001 5
3.474 0.197 -0.60299999 5
3.5940001 0.199 -0.56699997 6
3.7219999 0.20100001 -0.52899998 6
3.1589999 0.16599999 -0.70099998 4
3.25 0.16599999 -0.66799998 4
3.3729999 0.167 -0.639 5
3.471 0.167 -0.602 5
3.5940001 0.168 -0.56699997 5
3.727 0.169 -0.52999997 6
3.152 0.13699999 -0.699 5
3.25 0.13699999 -0.66799998 5
3.3699999 0.13699999 -0.63800001 4
3.4590001 0.13600001 -0.60000002 4
3.5880001 0.13600001 -0.56599998 5
3.72 0.13600001 -0.52899998 5
3.1559999 0.11 -0.69999999 4
3.253 0.109 -0.66900003 4
3.3629999 0.108 -0.63700002 5
3.474 0.106 -0.60299999 5
3.5869999 0.105 -0.56599998 5
3.721 0.103 -0.52899998 6
3.155 0.082999997 -0.69999999 5
3.247 0.079999998 -0.667 4
3.346 0.078000002 -0.634 4
3.4389999 0.075000003 -0.597 4
3.5899999 0.072999999 -0.56599998 5
0 0 0 50
3.1500001 0.055 -0.699 7
3.244 0.052000001 -0.667 4
3.365 0.048999999 -0.63700002 4
3.474 0.045000002 -0.60299999 5
3.582 0.041999999 -0.565 5
3.71 0.037999999 -0.52700001 5
3.1500001 0.027000001 -0.69800001 4
3.243 0.023 -0.66600001 4
3.352 0.018999999 -0.63499999 4
3.461 0.015 -0.60000002 6
3.5829999 0.0099999998 -0.565 5
3.7030001 0.0049999999 -0.52600002 6
3.1459999 0 -0.69800001 5
3.2449999 -0.0040000002 -0.667 4
3.359 -0.0089999996 -0.63599998 4
3.4630001 -0.015 -0.60100001 5
3.5810001 -0.02 -0.565 5
3.71 -0.027000001 -0.52700001 6
3.1440001 -0.027000001 -0.69700003 6
3.2349999 -0.033 -0.66500002 4
3.348 -0.039000001 -0.634 5
3.4630001 -0.045000002 -0.60100001 5
3.5810001 -0.052000001 -0.565 5
3.7060001 -0.059 -0.52700001 6
0 0 0 50
3.233 -0.061000001 -0.66399997 4
3.348 -0.068000004 -0.634 5
3.454 -0.075000003 -0.59899998 5
3.5699999 -0.082999997 -0.56300002 4
3.698 -0.090999998 -0.52499998 6
3.1359999 -0.082000002 -0.69499999 7
3.2309999 -0.089000002 -0.66399997 5
3.3499999 -0.097000003 -0.634 4
3.4560001 -0.106 -0.59899998 5
3.5680001 -0.114 -0.56199998 5
3.6949999 -0.124 -0.52499998 6
3.135 -0.109 -0.69499999 5
3.2320001 -0.117 -0.66399997 4
3.335 -0.126 -0.63099998 5
3.45 -0.13500001 -0.59799999 5
3.5739999 -0.146 -0.56300002 5
3.6900001 -0.156 -0.52399999 8
3.1329999 -0.13699999 -0.69400001 7
3.224 -0.145 -0.662 5
3.339 -0.155 -0.63200003 5
3.4519999 -0.16599999 -0.59799999 5
3.5680001 -0.177 -0.56199998 5
3.684 -0.18799999 -0.523 7
3.1370001 -0.164 -0.69499999 6
0 0 0 50
3.3429999 -0.185 -0.63200003 4
3.4489999 -0.19599999 -0.597 6
3.5650001 -0.208 -0.56099999 5
3.6849999 -0.221 -0.523 7
3.1300001 -0.192 -0.69300002 5
3.2309999 -0.20200001 -0.66299999 4
3.326 -0.213 -0.62900001 5
3.4419999 -0.226 -0.59600002 5
3.562 -0.23899999 -0.56 5
3.6830001 -0.25299999 -0.52200001 6
3.1300001 -0.219 -0.69300002 7
3.2279999 -0.23 -0.662 4
3.3380001 -0.243 -0.63099998 5
3.4430001 -0.25600001 -0.59600002 6
3.556 -0.27000001 -0.55900002 5
3.6719999 -0.285 -0.51999998 8
3.125 -0.24600001 -0.69199997 6
3.22 -0.259 -0.66100001 4
3.3280001 -0.27200001 -0.62900001 5
0 0 0 50
3.5550001 -0.30199999 -0.55900002 6
3.6760001 -0.31799999 -0.51999998 7
3.1229999 -0.27399999 -0.69099998 5
3.217 -0.287 -0.66000003 5
3.329 -0.30199999 -0.62900001 5
3.434 -0.31600001 -0.59399998 5
3.5380001 -0.331 -0.55599999 7
3.661 -0.34900001 -0.51800001 9
3.1259999 -0.301 -0.69199997 7
3.2119999 -0.31400001 -0.65899998 4
3.313 -0.329 -0.62599999 6
3.4219999 -0.345 -0.59200001 5
3.55 -0.36399999 -0.55699998 6
3.6659999 -0.382 -0.51800001 8
3.1099999 -0.32800001 -0.68800002 5
3.1949999 -0.34099999 -0.65499997 7
3.306 -0.35800001 -0.62400001 5
3.4230001 -0.37599999 -0.59100002 5
3.543 -0.39399999 -0.55599999 6
3.677 -0.41600001 -0.51899999 6
3.1070001 -0.35499999 -0.68800002 6
3.1960001 -0.36899999 -0.65499997 4
3.3239999 -0.389 -0.62699997 5
0 0 0 50
3.553 -0.42699999 -0.55699998 5
3.6670001 -0.447 -0.51700002 7
3.1170001 -0.38299999 -0.69 7
3.211 -0.40000001 -0.65799999 5
3.312 -0.417 -0.625 5
3.428 -0.43700001 -0.59200001 7
3.5480001 -0.458 -0.55599999 5
3.661 -0.479 -0.51599997 8
3.1170001 -0.41100001 -0.68900001 6
3.2 -0.426 -0.65499997 5
3.3169999 -0.447 -0.62599999 5
3.425 -0.46700001 -0.59100002 5
3.529 -0.48699999 -0.55299997 5
3.6570001 -0.51099998 -0.51499999 8
3.1129999 -0.43799999 -0.68900001 8
3.2 -0.45500001 -0.65499997 5
3.316 -0.47600001 -0.625 5
3.424 -0.49700001 -0.58999997 5
3.549 -0.52100003 -0.55500001 5
3.658 -0.54299998 -0.51499999 9
3.1199999 -0.46599999 -0.69 5
0 0 0 50
3.3069999 -0.50400001 -0.62300003 5
3.415 -0.52600002 -0.58899999 5
3.5409999 -0.551 -0.55400002 6
3.661 -0.57599998 -0.51499999 7
3.1099999 -0.493 -0.68800002 5
3.204 -0.51200002 -0.65600002 5
3.3169999 -0.53500003 -0.625 5
3.424 -0.55800003 -0.58999997 6
3.54 -0.58200002 -0.55299997 5
3.665 -0.60900003 -0.51499999 7
3.1159999 -0.52100003 -0.68900001 5
3.1960001 -0.53899997 -0.65399998 5
3.302 -0.56199998 -0.62199998 5
3.418 -0.58700001 -0.588 5
3.536 -0.61299998 -0.55199999 5
3.6559999 -0.63999999 -0.51300001 6
3.109 -0.54699999 -0.68699998 5
3.197 -0.56800002 -0.65399998 5
3.309 -0.59200001 -0.62300003 5
0 0 0 50
3.5250001 -0.64300001 -0.55000001 5
3.6600001 -0.67299998 -0.51300001 7
3.1029999 -0.574 -0.68599999 6
3.201 -0.597 -0.65499997 5
3.3069999 -0.62199998 -0.62199998 5
3.418 -0.648 -0.588 6
3.5339999 -0.676 -0.551 7
3.655 -0.70499998 -0.51200002 9
3.1029999 -0.60100001 -0.68599999 9
3.191 -0.62300003 -0.653 6
3.3050001 -0.64999998 -0.62199998 6
3.4170001 -0.67799997 -0.58700001 6
3.5320001 -0.70599997 -0.55000001 6
3.6530001 -0.73699999 -0.51099998 9
3.1040001 -0.62900001 -0.68599999 4
3.1960001 -0.65200001 -0.653 5
3.3010001 -0.67900002 -0.62099999 6
3.408 -0.70599997 -0.58499998 7
3.529 -0.73699999 -0.55000001 7
3.651 -0.76999998 -0.50999999 8
3.102 -0.65700001 -0.68599999 6
3.194 -0.68099999 -0.653 5
3.3010001 -0.708 -0.62099999 5
3.4170001 -0.73900002 -0.58700001 6
0 0 0 50
3.6470001 -0.801 -0.509 7
3.0940001 -0.68300003 -0.68400002 5
3.1860001 -0.70700002 -0.65100002 6
3.3010001 -0.73799998 -0.62099999 5
3.415 -0.76899999 -0.58600003 6
3.527 -0.80000001 -0.54900002 8
3.645 -0.833 -0.50800002 9
3.0910001 -0.70899999 -0.68400002 5
3.1900001 -0.73699999 -0.65200001 5
3.29 -0.76499999 -0.61799997 6
3.4000001 -0.796 -0.58399999 7
3.529 -0.83200002 -0.54900002 6
3.6459999 -0.866 -0.50800002 9
3.092 -0.73699999 -0.68400002 5
3.177 -0.76200002 -0.64999998 7
3.289 -0.79400003 -0.61799997 6
3.3970001 -0.82499999 -0.583 7
3.5179999 -0.861 -0.546 8
3.6400001 -0.89700001 -0.50700003 9
3.082 -0.76200002 -0.68199998 7
3.175 -0.79000002 -0.64899999 8
3.2839999 -0.82200003 -0.61699998 6
0 0 0 50
3.523 -0.89300001 -0.54699999 7
3.642 -0.93000001 -0.50700003 9
3.0869999 -0.79100001 -0.68300003 6
3.1800001 -0.81900001 -0.64999998 7
3.289 -0.852 -0.61799997 7
3.408 -0.889 -0.58499998 7
3.5150001 -0.92299998 -0.546 7
3.6359999 -0.96100003 -0.50599998 7
3.0880001 -0.81900001 -0.68400002 6
3.1800001 -0.847 -0.65100002 6
3.2820001 -0.88 -0.61699998 7
3.391 -0.91399997 -0.58200002 11
3.5220001 -0.95599997 -0.54699999 7
3.6359999 -0.99400002 -0.50599998 9
3.0780001 -0.84399998 -0.68199998 8
3.175 -0.875 -0.64999998 6
3.2739999 -0.90700001 -0.616 8
3.401 -0.94800001 -0.583 6
3.523 -0.98799998 -0.54699999 6
3.628 -1.024 -0.50400001 7
3.0699999 -0.86900002 -0.68099999 8
3.1730001 -0.90200001 -0.64999998 5
3.277 -0.93699998 -0.616 8
3.3940001 -0.97600001 -0.58200002 8
3.507 -1.015 -0.54400003 10
0 0 0 50
3.076 -0.898 -0.68199998 6
3.1700001 -0.93000001 -0.64999998 6
3.2690001 -0.96399999 -0.61500001 8
3.3959999 -1.007 -0.583 6
3.4990001 -1.044 -0.54299998 10
3.628 -1.089 -0.50400001 8
3.072 -0.92400002 -0.68199998 5
3.164 -0.95599997 -0.64899999 7
3.267 -0.99199998 -0.61500001 8
3.395 -1.0369999 -0.583 7
3.4979999 -1.074 -0.54299998 8
3.6199999 -1.119 -0.50300002 8
3.0699999 -0.95099998 -0.68199998 7
3.165 -0.98500001 -0.64899999 6
3.2620001 -1.02 -0.61500001 7
3.3840001 -1.064 -0.58099997 8
3.4960001 -1.105 -0.54299998 8
3.6210001 -1.151 -0.50300002 7
3.066 -0.977 -0.68199998 7
3.1600001 -1.012 -0.64899999 7
3.27 -1.052 -0.61699998 6
3.3840001 -1.094 -0.58200002 8
3.5009999 -1.138 -0.54400003 8
3.6129999 -1.181 -0.50199997 8
3.0680001 -1.005 -0.68300003 6
3.1600001 -1.039 -0.64999998 6
3.2590001 -1.077 -0.61500001 6
3.369 -1.119 -0.57999998 6
3.49 -1.165 -0.54299998 7
3.6170001 -1.214 -0.50300002 8
3.0569999 -1.029 -0.68099999 7
3.1530001 -1.0650001 -0.64899999 6
0 0 0 50
3.3829999 -1.153 -0.58200002 6
3.49 -1.196 -0.54299998 10
3.6140001 -1.245 -0.50300002 8
3.0539999 -1.0549999 -0.68199998 7
3.151 -1.092 -0.64899999 6
3.2690001 -1.138 -0.61799997 6
3.3770001 -1.181 -0.58200002 8
3.4820001 -1.224 -0.542 8
3.6129999 -1.277 -0.50300002 8
3.0439999 -1.0779999 -0.68099999 11
3.1500001 -1.12 -0.64999998 6
3.256 -1.1619999 -0.61699998 6
3.3640001 -1.206 -0.57999998 7
3.4779999 -1.253 -0.542 10
3.6059999 -1.306 -0.50300002 8
3.0450001 -1.1059999 -0.68199998 8
3.1440001 -1.145 -0.64999998 7
3.2449999 -1.187 -0.61500001 6
3.3659999 -1.2359999 -0.58200002 8
3.4849999 -1.286 -0.54400003 8
3.5999999 -1.335 -0.50199997 8
3.039 -1.13 -0.68199998 9
0 0 0 50
3.243 -1.214 -0.616 7
3.358 -1.263 -0.58099997 7
3.477 -1.314 -0.54299998 7
3.5999999 -1.367 -0.50300002 8
3.0369999 -1.156 -0.68300003 7
3.1329999 -1.196 -0.64999998 6
3.2409999 -1.242 -0.61699998 6
3.355 -1.291 -0.58200002 9
3.474 -1.3430001 -0.54400003 9
3.589 -1.3940001 -0.50199997 10
3.0309999 -1.1799999 -0.68300003 10
3.1240001 -1.22 -0.64899999 8
3.23 -1.266 -0.616 8
3.3510001 -1.319 -0.58200002 7
3.4619999 -1.368 -0.54299998 8
3.5829999 -1.4220001 -0.50199997 8
3.033 -1.2079999 -0.685 5
3.1270001 -1.249 -0.65100002 5
3.2320001 -1.295 -0.61799997 7
3.3440001 -1.345 -0.58200002 7
3.461 -1.398 -0.54400003 7
3.5880001 -1.455 -0.50400001 8
3.0209999 -1.229 -0.68300003 7
3.1110001 -1.2690001 -0.64999998 7
3.2260001 -1.3200001 -0.61799997 7
3.349 -1.375 -0.58399999 8
3.4590001 -1.427 -0.54500002 7
3.572 -1.48 -0.50300002 9
0 0 0 50
3.112 -1.296 -0.65100002 6
3.2249999 -1.347 -0.61900002 6
3.3429999 -1.402 -0.58499998 7
3.4549999 -1.454 -0.546 7
3.5780001 -1.513 -0.505 8
3.0209999 -1.281 -0.68699998 6
3.1099999 -1.322 -0.653 6
3.2260001 -1.375 -0.62099999 6
3.3369999 -1.427 -0.58499998 9
3.4449999 -1.479 -0.546 7
3.576 -1.5420001 -0.50599998 8
3.0090001 -1.302 -0.68599999 6
3.105 -1.347 -0.65399998 6
3.22 -1.4 -0.62199998 6
3.325 -1.45 -0.58499998 7
3.4360001 -1.5039999 -0.546 8
3.5550001 -1.563 -0.505 9
2.9979999 -1.323 -0.68599999 8
3.099 -1.37 -0.65399998 7
3.211 -1.423 -0.62199998 6
3.3299999 -1.48 -0.588 8
0 0 0 50
3.549 -1.59 -0.505 9
3.0009999 -1.349 -0.68900001 7
3.0899999 -1.392 -0.65499997 6
3.201 -1.446 -0.62199998 7
3.312 -1.5 -0.58600003 8
3.431 -1.559 -0.54900002 9
3.539 -1.615 -0.50599998 8
2.9890001 -1.369 -0.68800002 7
3.082 -1.414 -0.65499997 6
3.2019999 -1.472 -0.625 6
3.3010001 -1.522 -0.58700001 7
3.4200001 -1.582 -0.54900002 8
3.5480001 -1.648 -0.509 8
2.9879999 -1.393 -0.69 7
3.079 -1.438 -0.65700001 6
3.1760001 -1.4859999 -0.62199998 5
3.303 -1.55 -0.58899999 7
3.4189999 -1.609 -0.551 9
3.5380001 -1.6720001 -0.50999999 8
2.9820001 -1.415 -0.69199997 7
3.073 -1.46 -0.65799999 7
3.191 -1.5190001 -0.62699997 6
3.3039999 -1.577 -0.59200001 8
3.4089999 -1.632 -0.551 8
3.533 -1.698 -0.51099998 8
2.9679999 -1.432 -0.69099998 9
3.0599999 -1.479 -0.65799999 5
3.168 -1.534 -0.625 7
3.2880001 -1.596 -0.59100002 8
3.4059999 -1.658 -0.55299997 7
3.513 -1.715 -0.51099998 10
2.9660001 -1.455 -0.69300002 8
3.059 -1.502 -0.66000003 6
3.1719999 -1.561 -0.62900001 6
0 0 0 50
3.392 -1.677 -0.55400002 7
3.516 -1.744 -0.51300001 9
2.9519999 -1.472 -0.69300002 7
3.059 -1.527 -0.66299999 6
3.1700001 -1.585 -0.63099998 7
3.2690001 -1.638 -0.59299999 7
3.382 -1.699 -0.55500001 7
3.497 -1.762 -0.51300001 9
2.9519999 -1.495 -0.69599998 8
3.0450001 -1.544 -0.66299999 7
3.1589999 -1.603 -0.63200003 7
3.2750001 -1.666 -0.597 8
3.3699999 -1.7180001 -0.55599999 8
3.4979999 -1.789 -0.51599997 8
2.947 -1.515 -0.69800001 7
3.0420001 -1.5650001 -0.66600001 6
3.1289999 -1.612 -0.62900001 6
3.2550001 -1.6799999 -0.597 9
3.3659999 -1.7410001 -0.55800003 8
0 0 0 50
2.9389999 -1.534 -0.699 6
3.03 -1.582 -0.66600001 7
3.1199999 -1.63 -0.63 6
3.2449999 -1.698 -0.59799999 7
3.365 -1.7640001 -0.56099999 8
3.484 -1.832 -0.51999998 9
2.9360001 -1.554 -0.70200002 6
3.0250001 -1.601 -0.66799998 6
3.1400001 -1.663 -0.63700002 7
3.2420001 -1.72 -0.60000002 7
3.3529999 -1.7819999 -0.56199998 8
3.473 -1.85 -0.52100003 9
2.925 -1.569 -0.70300001 7
3.0150001 -1.617 -0.66900003 7
3.1240001 -1.677 -0.63700002 7
3.2249999 -1.733 -0.60000002 7
3.339 -1.798 -0.56300002 7
3.461 -1.868 -0.523 9
2.914 -1.5829999 -0.704 7
3.003 -1.632 -0.67000002 6
3.112 -1.692 -0.63800001 8
3.2260001 -1.756 -0.60399997 10
3.3369999 -1.819 -0.56599998 8
3.4560001 -1.888 -0.52499998 9
2.9089999 -1.601 -0.70599997 6
3.0050001 -1.653 -0.67400002 7
3.1029999 -1.7079999 -0.63999999 7
3.2130001 -1.77 -0.60500002 8
3.3199999 -1.831 -0.56599998 10
3.437 -1.9 -0.52600002 7
2.9070001 -1.619 -0.70899999 6
2.997 -1.669 -0.676 7
3.1040001 -1.729 -0.64399999 7
3.207 -1.7869999 -0.60699999 8
3.3150001 -1.85 -0.56900001 7
3.437 -1.921 -0.52899998 8
2.8900001 -1.6289999 -0.70899999 8
2.987 -1.682 -0.67699999 6
3.095 -1.743 -0.64499998 6
3.1919999 -1.799 -0.60799998 7
3.3110001 -1.867 -0.57200003 8
3.4260001 -1.9349999 -0.53100002 9
2.888 -1.645 -0.71200001 7
2.9790001 -1.696 -0.67900002 6
3.0469999 -1.734 -0.639 5
3.1919999 -1.817 -0.61199999 8
3.296 -1.878 -0.57300001 7
3.4260001 -1.955 -0.53500003 8
2.8729999 -1.654 -0.71200001 8
2.9690001 -1.7079999 -0.68099999 6
3.0780001 -1.7690001 -0.64899999 7
3.1689999 -1.822 -0.611 7
3.2850001 -1.89 -0.574 7
3.4170001 -1.9680001 -0.537 9
2.872 -1.67 -0.71600002 6
2.9460001 -1.711 -0.67900002 6
3.0699999 -1.7819999 -0.65100002 7
3.161 -1.835 -0.61299998 7
3.289 -1.91 -0.579 8
3.398 -1.975 -0.53799999 8
2.8640001 -1.682 -0.71799999 6
2.957 -1.733 -0.68599999 7
3.062 -1.793 -0.653 7
3.1619999 -1.852 -0.61699998 7
3.28 -1.921 -0.58099997 8
3.3989999 -1.992 -0.542 8
2.8510001 -1.688 -0.71799999 7
2.9460001 -1.742 -0.68699998 6
3.052 -1.803 -0.65499997 7
3.1530001 -1.8609999 -0.61900002 8
3.26 -1.925 -0.58099997 7
3.3829999 -1.998 -0.54299998 9
2.8469999 -1.7 -0.72100002 6
2.944 -1.755 -0.69 6
3.046 -1.814 -0.65799999 7
3.115 -1.853 -0.61500001 6
3.2609999 -1.9400001 -0.58499998 8
3.365 -2.003 -0.54400003 7
2.836 -1.707 -0.722 6
2.927 -1.7589999 -0.69 7
3.0380001 -1.823 -0.66000003 7
3.135 -1.8789999 -0.62300003 7
3.223 -1.931 -0.58200002 6
3.3640001 -2.0150001 -0.54699999 7
2.8269999 -1.715 -0.72399998 6
2.9230001 -1.7690001 -0.69300002 6
3.013 -1.8200001 -0.65799999 6
3.102 -1.872 -0.62099999 7
3.233 -1.949 -0.588 7
3.359 -2.0250001 -0.55000001 8
2.8380001 -1.733 -0.73000002 6
2.9130001 -1.775 -0.69499999 7
3.0239999 -1.8380001 -0.66399997 8
3.1240001 -1.897 -0.62900001 7
3.211 -1.948 -0.588 7
3.358 -2.036 -0.55400002 9
2.8169999 -1.7309999 -0.72899997 6
2.9100001 -1.783 -0.69700003 7
3.016 -1.844 -0.66600001 7
3.1140001 -1.901 -0.63 8
3.2179999 -1.962 -0.59200001 7
0 0 0 50
2.8139999 -1.739 -0.73199999 6
2.9030001 -1.789 -0.69999999 7
3.0120001 -1.851 -0.66900003 7
3.1029999 -1.904 -0.63200003 8
3.2119999 -1.9680001 -0.59500003 7
3.3380001 -2.0439999 -0.55800003 9
2.8099999 -1.745 -0.73400003 6
2.8940001 -1.7920001 -0.70099998 7
3.0039999 -1.855 -0.671 7
3.0880001 -1.903 -0.63200003 7
3.1989999 -1.9680001 -0.59600002 7
3.319 -2.04 -0.55900002 8
2.8039999 -1.75 -0.736 6
2.888 -1.796 -0.70300001 7
2.994 -1.8559999 -0.67199999 7
3.0910001 -1.9119999 -0.63599998 8
3.197 -1.974 -0.59899998 7
3.3239999 -2.05 -0.56199998 9
2.7909999 -1.748 -0.736 6
2.8889999 -1.803 -0.70700002 7
2.9909999 -1.86 -0.67500001 7
3.0769999 -1.91 -0.63700002 8
3.194 -1.978 -0.602 8
3.3139999 -2.05 -0.56400001 9
2.7880001 -1.752 -0.73900002 6
2.8759999 -1.801 -0.70700002 8
0 0 0 50
3.0739999 -1.9119999 -0.639 8
3.1900001 -1.9809999 -0.60399997 8
3.299 -2.0450001 -0.565 10
2.7780001 -1.751 -0.73900002 7
2.8710001 -1.801 -0.708 7
2.974 -1.86 -0.67699999 7
3.0650001 -1.911 -0.64099997 7
3.181 -1.978 -0.60600001 8
3.3010001 -2.049 -0.56900001 9
2.7690001 -1.749 -0.74000001 7
2.8640001 -1.801 -0.70999998 7
2.97 -1.86 -0.67900002 7
3.0639999 -1.913 -0.64300001 8
3.178 -1.979 -0.60799998 8
3.293 -2.0469999 -0.56999999 9
2.767 -1.75 -0.74299997 7
2.858 -1.799 -0.71100003 7
2.967 -1.8609999 -0.68199998 7
3.0580001 -1.911 -0.64499998 8
3.174 -1.978 -0.611 8
3.2880001 -2.0439999 -0.57200003 9
2.7620001 -1.749 -0.74400002 7
2.8570001 -1.8 -0.71399999 7
2.9590001 -1.857 -0.68199998 7
3.052 -1.908 -0.64700001 8
3.171 -1.976 -0.61199999 8
3.2809999 -2.039 -0.574 9
2.7579999 -1.747 -0.745 8
2.848 -1.795 -0.71399999 7
2.95 -1.851 -0.68300003 7
3.0450001 -1.903 -0.64700001 8
3.155 -1.965 -0.61199999 7
3.283 -2.039 -0.57700002 9
2.757 -1.7460001 -0.74800003 8
2.8499999 -1.796 -0.71700001 7
2.947 -1.848 -0.685 7
3.04 -1.898 -0.64899999 7
3.1459999 -1.957 -0.61299998 7
3.279 -2.0339999 -0.57800001 9
2.7520001 -1.7410001 -0.74800003 8
2.8429999 -1.789 -0.71700001 7
2.948 -1.846 -0.68699998 7
3.0380001 -1.8940001 -0.64999998 7
3.155 -1.96 -0.61699998 7
3.2679999 -2.023 -0.57800001 9
2.7520001 -1.739 -0.75 8
2.845 -1.7869999 -0.72000003 6
2.948 -1.8430001 -0.68900001 7
0 0 0 50
3.1470001 -1.95 -0.61699998 8
3.26 -2.013 -0.579 9
2.7460001 -1.732 -0.75099999 7
2.813 -1.763 -0.713 5
2.9419999 -1.834 -0.68900001 7
3.036 -1.8839999 -0.65399998 7
3.148 -1.9450001 -0.61900002 8
3.2590001 -2.006 -0.58099997 9
2.743 -1.725 -0.75099999 7
2.8199999 -1.763 -0.71700001 5
2.9400001 -1.827 -0.69 7
3.0309999 -1.874 -0.65399998 7
3.1489999 -1.939 -0.62099999 8
3.256 -1.997 -0.58200002 9
2.7409999 -1.7180001 -0.75199997 6
2.8380001 -1.768 -0.72299999 6
2.9400001 -1.821 -0.69199997 7
3.0309999 -1.867 -0.65499997 7
3.145 -1.929 -0.62099999 8
3.2550001 -1.988 -0.583 9
2.734 -1.707 -0.75099999 7
2.8050001 -1.74 -0.71499997 5
2.9430001 -1.8150001 -0.69400001 7
3.0309999 -1.859 -0.65600002 7
3.1440001 -1.919 -0.62199998 8
3.257 -1.98 -0.58399999 8
2.7390001 -1.7029999 -0.75400001 7
2.8329999 -1.75 -0.72299999 6
2.937 -1.803 -0.69300002 7
3.036 -1.853 -0.65899998 7
3.1470001 -1.911 -0.62400001 8
3.256 -1.9680001 -0.58499998 8
2.74 -1.6950001 -0.75400001 7
2.8299999 -1.739 -0.72299999 5
2.9330001 -1.79 -0.69300002 7
3.029 -1.839 -0.65799999 7
3.1470001 -1.9 -0.62400001 8
3.2520001 -1.954 -0.58499998 7
2.737 -1.684 -0.75400001 8
2.8210001 -1.723 -0.72100002 5
2.9349999 -1.781 -0.69400001 7
3.0239999 -1.824 -0.65700001 7
3.145 -1.887 -0.62400001 8
3.2590001 -1.946 -0.58700001 8
2.74 -1.676 -0.755 8
2.829 -1.717 -0.72399998 6
2.9260001 -1.7640001 -0.69199997 7
3.0339999 -1.818 -0.66000003 7
3.1059999 -1.85 -0.61699998 6
3.2550001 -1.9299999 -0.58600003 8
2.744 -1.6670001 -0.75599998 7
2.8340001 -1.7079999 -0.72500002 6
0 0 0 50
3.026 -1.8 -0.65799999 6
3.148 -1.862 -0.625 8
3.2590001 -1.9170001 -0.58700001 8
2.7390001 -1.652 -0.75400001 8
2.8340001 -1.696 -0.72500002 6
2.924 -1.737 -0.69099998 6
3.0339999 -1.791 -0.65899998 7
3.148 -1.847 -0.625 8
3.2539999 -1.899 -0.58600003 9
2.743 -1.641 -0.755 7
2.839 -1.6849999 -0.72500002 7
2.941 -1.733 -0.69400001 7
3.0369999 -1.778 -0.65899998 8
3.1359999 -1.825 -0.62199998 7
3.263 -1.888 -0.58700001 8
2.7420001 -1.627 -0.75400001 7
2.842 -1.673 -0.72500002 6
2.944 -1.72 -0.69499999 7
3.0439999 -1.767 -0.66000003 7
3.155 -1.819 -0.625 8
3.2620001 -1.87 -0.58600003 9
2.7449999 -1.614 -0.75400001 9
2.8410001 -1.6569999 -0.72399998 6
2.948 -1.706 -0.69499999 7
3.0420001 -1.749 -0.65899998 7
3.1619999 -1.806 -0.62599999 7
3.273 -1.858 -0.588 10
2.7449999 -1.599 -0.75199997 9
2.8440001 -1.643 -0.72399998 6
2.95 -1.691 -0.69400001 7
3.0480001 -1.735 -0.65899998 7
3.158 -1.786 -0.62400001 7
3.2690001 -1.837 -0.58600003 8
2.7550001 -1.589 -0.75400001 8
2.8440001 -1.627 -0.722 6
2.9119999 -1.652 -0.68400002 5
3.05 -1.7180001 -0.65799999 7
3.1689999 -1.773 -0.625 8
3.279 -1.823 -0.58600003 8
2.7579999 -1.575 -0.75300002 6
2.8399999 -1.607 -0.72000003 8
2.9530001 -1.658 -0.69199997 7
3.0580001 -1.704 -0.65799999 7
3.161 -1.75 -0.62199998 8
3.273 -1.8 -0.58399999 9
2.7579999 -1.557 -0.75099999 7
2.8510001 -1.595 -0.72100002 8
2.925 -1.624 -0.68300003 5
3.059 -1.6849999 -0.65700001 7
3.174 -1.737 -0.62300003 8
3.29 -1.789 -0.58499998 9
2.773 -1.548 -0.75300002 6
2.862 -1.5829999 -0.722 6
2.964 -1.626 -0.69 7
3.0610001 -1.666 -0.65499997 6
3.178 -1.7180001 -0.62099999 7
3.289 -1.766 -0.583 9
2.7739999 -1.53 -0.75099999 7
2.862 -1.564 -0.71899998 7
2.9660001 -1.607 -0.68900001 7
3.0669999 -1.649 -0.65499997 7
3.1719999 -1.693 -0.61799997 11
3.293 -1.7460001 -0.58200002 8
2.776 -1.512 -0.74900001 9
2.8699999 -1.549 -0.71899998 6
2.9779999 -1.594 -0.68900001 6
3.0829999 -1.637 -0.65600002 7
3.1930001 -1.683 -0.62 8
3.3050001 -1.73 -0.58200002 9
2.7850001 -1.497 -0.74900001 8
2.8699999 -1.528 -0.71600002 9
2.984 -1.575 -0.68800002 6
3.0880001 -1.618 -0.65399998 7
3.1919999 -1.66 -0.61799997 9
3.3080001 -1.7079999 -0.57999998 11
2.799 -1.484 -0.75 6
2.8900001 -1.518 -0.71899998 6
2.9860001 -1.5549999 -0.68599999 6
3.0910001 -1.597 -0.65200001 7
3.197 -1.6390001 -0.616 8
0 0 0 50
2.796 -1.462 -0.74599999 7
2.8789999 -1.492 -0.713 8
2.994 -1.5369999 -0.685 7
3.102 -1.58 -0.65200001 7
3.2079999 -1.622 -0.61500001 7
3.3269999 -1.67 -0.57800001 7
2.799 -1.442 -0.74400002 9
2.895 -1.478 -0.71399999 6
2.9979999 -1.517 -0.68300003 6
3.1040001 -1.558 -0.64899999 7
3.22 -1.603 -0.61500001 7
3.332 -1.647 -0.57599998 7
2.816 -1.4299999 -0.745 7
2.9000001 -1.4579999 -0.71200001 5
3.003 -1.497 -0.68099999 7
3.115 -1.539 -0.64899999 6
3.217 -1.577 -0.611 10
3.3399999 -1.626 -0.57499999 9
2.8199999 -1.41 -0.74299997 6
2.915 -1.443 -0.71200001 6
3.02 -1.482 -0.68099999 6
3.1229999 -1.5190001 -0.64700001 7
3.2379999 -1.563 -0.61199999 7
3.3529999 -1.607 -0.574 10
2.823 -1.3890001 -0.74000001 10
2.921 -1.423 -0.70999998 6
3.0250001 -1.461 -0.67900002 6
3.131 -1.499 -0.64499998 7
3.237 -1.5369999 -0.60900003 6
3.3640001 -1.586 -0.57300001 8
2.8329999 -1.3710001 -0.73900002 9
2.925 -1.402 -0.708 8
3.0380001 -1.443 -0.67900002 6
3.138 -1.477 -0.64300001 7
3.2390001 -1.513 -0.60600001 6
3.3699999 -1.562 -0.56999999 8
2.848 -1.355 -0.73900002 6
2.9400001 -1.385 -0.708 6
3.0480001 -1.423 -0.67699999 6
3.154 -1.46 -0.64300001 6
3.266 -1.499 -0.60699999 6
3.375 -1.538 -0.56800002 10
2.8529999 -1.334 -0.73699999 6
2.9460001 -1.364 -0.70599997 6
3.04 -1.395 -0.67199999 8
3.1570001 -1.436 -0.63999999 9
3.2709999 -1.475 -0.60500002 8
3.3870001 -1.516 -0.56599998 7
2.862 -1.314 -0.73500001 7
2.948 -1.34 -0.70200002 5
3.062 -1.38 -0.67299998 6
3.171 -1.416 -0.639 8
3.2720001 -1.45 -0.60100001 11
3.398 -1.494 -0.565 9
2.8699999 -1.294 -0.73299998 6
2.9590001 -1.321 -0.70099998 6
3.0650001 -1.3559999 -0.67000002 6
3.1700001 -1.39 -0.63499999 7
3.2820001 -1.427 -0.59899998 8
3.4070001 -1.47 -0.56199998 7
2.872 -1.271 -0.73000002 8
2.964 -1.299 -0.69800001 7
3.0710001 -1.3329999 -0.667 6
3.184 -1.369 -0.634 7
3.289 -1.403 -0.597 9
3.4130001 -1.4450001 -0.56 9
2.8900001 -1.255 -0.73000002 6
2.973 -1.278 -0.69599998 7
3.0769999 -1.3099999 -0.66399997 6
3.194 -1.348 -0.63200003 6
3.303 -1.382 -0.59600002 7
3.4300001 -1.423 -0.55900002 8
2.8970001 -1.233 -0.72799999 9
2.9909999 -1.26 -0.69599998 6
3.0899999 -1.289 -0.66299999 7
3.1989999 -1.323 -0.62900001 7
3.3150001 -1.359 -0.59399998 8
3.434 -1.396 -0.55599999 8
2.905 -1.211 -0.72600001 9
2.9990001 -1.238 -0.69400001 6
3.092 -1.2640001 -0.66000003 9
3.214 -1.302 -0.62900001 7
3.326 -1.336 -0.59200001 8
3.4449999 -1.372 -0.55299997 9
2.911 -1.189 -0.72299999 12
3.0050001 -1.215 -0.69099998 6
3.1159999 -1.247 -0.66100001 6
3.224 -1.279 -0.62599999 7
3.335 -1.312 -0.58999997 8
3.46 -1.349 -0.55199999 8
2.925 -1.169 -0.722 10
0 0 0 50
3.112 -1.219 -0.65600002 9
3.2290001 -1.253 -0.62300003 7
3.339 -1.285 -0.58600003 9
3.47 -1.324 -0.55000001 8
2.9300001 -1.146 -0.71899998 8
3.023 -1.17 -0.68699998 9
3.1440001 -1.204 -0.65799999 6
3.237 -1.229 -0.62099999 7
3.3610001 -1.2640001 -0.58600003 8
3.49 -1.302 -0.54900002 9
2.9400001 -1.124 -0.71700001 6
3.033 -1.147 -0.685 8
3.1359999 -1.175 -0.65200001 7
3.253 -1.207 -0.62 6
3.3610001 -1.2359999 -0.58200002 8
3.4890001 -1.273 -0.54500002 8
2.9449999 -1.1 -0.71399999 5
3.0450001 -1.125 -0.68400002 6
3.142 -1.15 -0.64999998 8
3.2579999 -1.181 -0.61699998 6
3.385 -1.216 -0.58200002 6
3.494 -1.245 -0.542 9
2.964 -1.081 -0.71499997 5
3.049 -1.1 -0.68000001 7
3.161 -1.1289999 -0.64999998 6
3.279 -1.16 -0.61699998 6
3.391 -1.1900001 -0.579 7
3.5120001 -1.222 -0.54100001 7
2.974 -1.058 -0.713 7
3.059 -1.077 -0.67799997 8
3.1670001 -1.104 -0.64700001 6
3.289 -1.136 -0.61400002 5
3.398 -1.163 -0.57700002 7
3.526 -1.197 -0.53899997 8
2.9749999 -1.033 -0.70899999 9
3.0699999 -1.054 -0.67699999 6
3.1800001 -1.081 -0.64499998 6
3.3010001 -1.112 -0.61299998 5
3.411 -1.138 -0.57499999 7
3.5320001 -1.169 -0.53600001 11
0 0 0 50
3.0810001 -1.031 -0.67500001 6
3.1830001 -1.0549999 -0.64200002 8
3.309 -1.086 -0.61000001 6
3.415 -1.1109999 -0.57200003 8
3.5439999 -1.142 -0.53399998 8
2.994 -0.98699999 -0.70499998 8
3.096 -1.0089999 -0.67400002 6
3.1989999 -1.033 -0.64099997 5
3.3050001 -1.057 -0.60600001 6
3.425 -1.085 -0.56900001 7
3.5550001 -1.1160001 -0.53200001 8
3.0039999 -0.96399999 -0.70300001 11
3.098 -0.98299998 -0.671 7
3.1949999 -1.0039999 -0.63599998 6
3.3180001 -1.0319999 -0.60399997 6
3.4289999 -1.057 -0.56599998 10
3.5650001 -1.089 -0.52999997 9
3.017 -0.94099998 -0.70200002 9
3.109 -0.95999998 -0.66900003 7
3.217 -0.98299998 -0.63700002 6
3.336 -1.0089999 -0.60399997 10
3.448 -1.033 -0.56599998 9
3.5780001 -1.063 -0.528 8
3.026 -0.91799998 -0.69999999 8
3.1170001 -0.935 -0.667 7
3.2190001 -0.95599997 -0.63300002 8
3.339 -0.98100001 -0.60000002 6
3.46 -1.007 -0.56400001 6
3.589 -1.036 -0.52600002 8
3.029 -0.89200002 -0.69700003 10
3.1210001 -0.90899998 -0.66399997 6
3.2360001 -0.93300003 -0.63300002 7
3.3499999 -0.95599997 -0.59899998 8
3.477 -0.98299998 -0.56300002 6
3.5929999 -1.006 -0.523 10
3.046 -0.87 -0.69700003 12
3.138 -0.88700002 -0.66399997 8
3.237 -0.90499997 -0.62900001 8
3.365 -0.93199998 -0.59799999 8
3.4749999 -0.95300001 -0.55900002 8
3.6040001 -0.97899997 -0.52100003 11
3.0510001 -0.84500003 -0.69400001 10
3.1370001 -0.85900003 -0.66000003 10
3.25 -0.88099998 -0.62800002 7
3.3670001 -0.903 -0.59399998 8
3.4920001 -0.92799997 -0.55900002 6
3.619 -0.95200002 -0.51999998 7
3.062 -0.82099998 -0.69300002 6
3.1589999 -0.838 -0.66100001 7
0 0 0 50
3.385 -0.87900001 -0.59399998 6
3.4979999 -0.89999998 -0.55599999 6
3.6229999 -0.92299998 -0.51700002 9
3.0680001 -0.796 -0.69099998 8
3.165 -0.81199998 -0.65899998 6
3.267 -0.829 -0.625 7
3.388 -0.85100001 -0.59100002 7
3.513 -0.87400001 -0.55500001 6
3.638 -0.89600003 -0.51599997 8
3.0739999 -0.77100003 -0.68900001 8
3.1700001 -0.78600001 -0.65600002 6
3.28 -0.80400002 -0.62400001 6
3.404 -0.82599998 -0.59100002 7
3.526 -0.847 -0.55400002 6
3.6459999 -0.86699998 -0.514 9
3.0869999 -0.74699998 -0.68800002 9
3.1789999 -0.76099998 -0.65499997 9
3.2969999 -0.77999997 -0.62400001 6
3.4000001 -0.796 -0.58700001 6
3.5350001 -0.81900001 -0.55199999 6
3.654 -0.83899999 -0.51200002 8
3.096 -0.722 -0.68699998 7
3.1930001 -0.73699999 -0.65499997 5
3.2939999 -0.75099999 -0.62 7
3.4230001 -0.773 -0.588 6
3.54 -0.79100001 -0.55000001 7
3.674 -0.81300002 -0.51200002 7
3.102 -0.69700003 -0.685 9
3.194 -0.70899999 -0.65200001 7
3.303 -0.72500002 -0.61900002 7
3.4319999 -0.745 -0.58600003 6
3.5580001 -0.76499999 -0.55000001 6
3.6800001 -0.78299999 -0.50999999 6
3.1059999 -0.671 -0.68300003 7
3.2060001 -0.685 -0.65100002 6
3.319 -0.69999999 -0.61900002 6
3.431 -0.71600002 -0.58399999 5
3.556 -0.73500001 -0.54699999 5
3.687 -0.75400001 -0.50800002 7
3.1140001 -0.64600003 -0.68199998 7
3.2119999 -0.65799999 -0.64999998 5
3.332 -0.67500001 -0.61900002 5
3.448 -0.69099998 -0.58399999 5
3.5569999 -0.70499998 -0.54500002 4
3.698 -0.72500002 -0.50700003 7
3.1210001 -0.62 -0.68099999 8
3.2160001 -0.63099998 -0.648 6
3.3399999 -0.648 -0.61799997 5
3.4530001 -0.66299999 -0.58200002 5
3.582 -0.68000001 -0.546 6
3.7019999 -0.69499999 -0.505 7
3.131 -0.59600002 -0.68000001 8
3.2290001 -0.60699999 -0.648 6
3.342 -0.62099999 -0.61500001 5
3.46 -0.63499999 -0.58099997 5
3.586 -0.65100002 -0.54400003 5
3.71 -0.66600001 -0.50400001 5
3.1389999 -0.56999999 -0.68000001 5
3.2390001 -0.58099997 -0.64700001 5
3.346 -0.59299999 -0.61400002 5
3.4690001 -0.60699999 -0.57999998 6
3.586 -0.62099999 -0.542 6
3.7190001 -0.63700002 -0.50199997 7
0 0 0 50
3.2449999 -0.55500001 -0.64600003 5
3.3499999 -0.565 -0.61199999 5
3.4690001 -0.57800001 -0.57800001 5
3.6010001 -0.59299999 -0.542 5
3.7260001 -0.60699999 -0.50099999 8
3.1530001 -0.51800001 -0.67799997 5
3.2449999 -0.52700001 -0.64399999 6
3.3670001 -0.54000002 -0.61299998 5
3.487 -0.55199999 -0.57800001 5
3.6129999 -0.565 -0.54100001 6
3.737 -0.57800001 -0.50099999 6
3.155 -0.49200001 -0.676 7
3.26 -0.50199997 -0.64499998 6
3.3789999 -0.51300001 -0.61299998 5
3.4790001 -0.52200001 -0.57499999 5
3.6070001 -0.53399998 -0.53899997 5
3.74 -0.54799998 -0.49900001 8
3.165 -0.46700001 -0.676 6
3.263 -0.47400001 -0.64399999 5
3.375 -0.484 -0.611 5
3.503 -0.49599999 -0.57700002 5
3.625 -0.50700003 -0.54000002 5
3.74 -0.51700002 -0.498 6
3.164 -0.44 -0.67400002 7
3.2709999 -0.44800001 -0.64300001 5
3.385 -0.45699999 -0.611 5
3.5 -0.46700001 -0.57499999 5
3.6240001 -0.477 -0.53799999 6
3.753 -0.48800001 -0.498 9
3.177 -0.414 -0.676 5
3.2709999 -0.41999999 -0.64200002 5
3.388 -0.43000001 -0.61000001 6
3.5039999 -0.43799999 -0.574 5
3.632 -0.44800001 -0.53799999 6
3.7579999 -0.458 -0.49700001 7
3.171 -0.38699999 -0.67299998 7
3.2780001 -0.39399999 -0.64200002 5
3.395 -0.40200001 -0.61000001 5
3.5190001 -0.41100001 -0.57599998 5
3.6329999 -0.41800001 -0.537 6
3.7590001 -0.42699999 -0.49599999 6
3.178 -0.361 -0.67299998 7
3.2839999 -0.36700001 -0.64200002 6
3.4070001 -0.375 -0.611 5
3.5150001 -0.382 -0.574 5
3.6359999 -0.389 -0.53600001 6
3.766 -0.39700001 -0.49599999 6
3.1919999 -0.336 -0.67500001 6
3.289 -0.34 -0.64200002 6
3.404 -0.347 -0.60900003 5
3.5120001 -0.352 -0.57200003 5
3.6500001 -0.36000001 -0.537 5
3.779 -0.368 -0.49700001 6
3.187 -0.308 -0.67199999 7
3.2909999 -0.31299999 -0.64099997 5
3.404 -0.31900001 -0.60799998 5
3.5309999 -0.32499999 -0.574 5
3.6429999 -0.33000001 -0.53500003 6
3.7690001 -0.336 -0.495 6
3.201 -0.28299999 -0.67500001 6
3.299 -0.287 -0.64200002 5
3.4200001 -0.292 -0.61000001 5
3.5320001 -0.296 -0.574 5
3.6630001 -0.30199999 -0.537 5
3.7839999 -0.30700001 -0.49599999 7
3.197 -0.25600001 -0.67299998 7
3.2969999 -0.259 -0.63999999 5
3.414 -0.26300001 -0.60799998 6
3.533 -0.26800001 -0.57300001 5
3.652 -0.27200001 -0.53500003 5
3.7839999 -0.27599999 -0.495 7
3.2030001 -0.23 -0.67400002 6
3.306 -0.23199999 -0.64200002 5
3.4159999 -0.235 -0.60799998 5
3.5209999 -0.237 -0.57099998 5
3.6630001 -0.242 -0.53600001 5
3.7980001 -0.24600001 -0.49700001 7
3.2049999 -0.20299999 -0.67400002 6
3.3069999 -0.205 -0.64099997 5
3.4230001 -0.207 -0.60900003 5
3.5409999 -0.20999999 -0.574 5
3.6659999 -0.213 -0.537 5
3.796 -0.21600001 -0.49599999 6
3.204 -0.176 -0.67299998 6
0 0 0 50
3.425 -0.17900001 -0.60900003 5
3.539 -0.18099999 -0.57300001 5
3.6689999 -0.183 -0.537 6
3.793 -0.185 -0.49599999 6
3.2130001 -0.15000001 -0.67500001 7
3.309 -0.15000001 -0.64200002 5
3.4230001 -0.15099999 -0.60900003 5
3.5450001 -0.152 -0.574 5
3.6789999 -0.154 -0.53799999 5
3.8010001 -0.155 -0.49700001 6
3.2160001 -0.124 -0.676 5
3.319 -0.123 -0.64399999 4
3.4289999 -0.123 -0.61000001 5
3.5320001 -0.123 -0.57300001 4
3.6830001 -0.124 -0.53899997 5
3.8 -0.124 -0.49700001 6
3.2249999 -0.097000003 -0.67799997 4
3.3199999 -0.096000001 -0.64399999 4
3.4419999 -0.096000001 -0.61299998 5
3.546 -0.094999999 -0.57499999 5
3.6800001 -0.094999999 -0.53899997 5
3.8069999 -0.093999997 -0.49900001 6
3.2149999 -0.07 -0.676 6
3.322 -0.068999998 -0.64499998 5
3.4460001 -0.068000004 -0.61400002 5
3.543 -0.066 -0.57499999 5
3.6700001 -0.064999998 -0.53799999 5
3.8050001 -0.064000003 -0.49900001 6
3.2249999 -0.044 -0.67900002 6
3.3199999 -0.041999999 -0.64499998 5
3.434 -0.039999999 -0.61199999 5
3.5350001 -0.037999999 -0.574 4
3.6830001 -0.035999998 -0.54100001 5
3.816 -0.033 -0.50099999 5
3.2249999 -0.017999999 -0.67900002 4
3.325 -0.015 -0.64700001 4
3.444 -0.012 -0.61500001 5
3.5569999 -0.0089999996 -0.579 5
0 0 0 50
3.8080001 -0.003 -0.50099999 6
3.2219999 0.0080000004 -0.68000001 6
3.323 0.011 -0.64700001 5
3.4389999 0.014 -0.61500001 5
3.5469999 0.017999999 -0.57800001 4
3.6800001 0.022 -0.542 5
3.8150001 0.026000001 -0.50300002 5
3.22 0.034000002 -0.68000001 5
3.325 0.037999999 -0.64899999 4
3.3940001 0.041999999 -0.60799998 4
3.5599999 0.046999998 -0.58099997 5
3.684 0.050999999 -0.54400003 5
3.812 0.056000002 -0.50400001 6
3.2179999 0.059999999 -0.68099999 7
3.322 0.064999998 -0.64899999 5
3.4460001 0.07 -0.61799997 5
3.513 0.074000001 -0.57499999 3
3.6819999 0.079999998 -0.54500002 5
3.8110001 0.086000003 -0.505 5
3.22 0.086000003 -0.68300003 4
3.3199999 0.090999998 -0.64999998 5
3.444 0.097999997 -0.61900002 5
3.5469999 0.103 -0.58200002 4
3.6760001 0.109 -0.54500002 5
3.812 0.116 -0.50599998 5
3.2130001 0.112 -0.68300003 5
3.303 0.118 -0.648 4
3.3970001 0.123 -0.61199999 4
3.5369999 0.131 -0.58200002 5
3.668 0.138 -0.546 4
3.806 0.146 -0.50700003 5
3.22 0.139 -0.68599999 5
3.325 0.145 -0.65399998 4
3.437 0.152 -0.62099999 5
3.5469999 0.16 -0.58499998 5
3.6800001 0.168 -0.54900002 5
3.8039999 0.176 -0.50800002 6
3.2149999 0.16500001 -0.68599999 5
3.319 0.17200001 -0.65499997 4
0 0 0 50
3.5439999 0.18700001 -0.58600003 4
3.671 0.19599999 -0.55000001 5
3.7980001 0.206 -0.509 6
3.22 0.191 -0.68900001 4
3.3199999 0.199 -0.65700001 4
3.441 0.208 -0.62599999 5
3.5380001 0.215 -0.58700001 5
3.671 0.226 -0.551 5
3.7980001 0.235 -0.51099998 6
3.214 0.21699999 -0.69 6
3.325 0.226 -0.66000003 4
3.4330001 0.234 -0.62599999 4
3.546 0.244 -0.58999997 5
3.668 0.25400001 -0.55299997 5
3.8 0.26499999 -0.514 7
3.221 0.243 -0.69300002 4
3.312 0.25099999 -0.65899998 4
3.3870001 0.25799999 -0.62 4
3.5409999 0.271 -0.59200001 4
3.6589999 0.28200001 -0.55400002 5
3.799 0.29499999 -0.51599997 6
3.2090001 0.26800001 -0.69300002 5
3.3050001 0.27700001 -0.66000003 5
3.408 0.287 -0.62599999 4
3.539 0.29899999 -0.59399998 5
3.6630001 0.31099999 -0.55699998 5
3.793 0.324 -0.51700002 6
3.207 0.294 -0.69499999 5
3.3099999 0.30399999 -0.66299999 7
3.4059999 0.31400001 -0.62800002 4
3.526 0.32600001 -0.59399998 5
3.6659999 0.34 -0.56 6
3.7950001 0.354 -0.51999998 6
3.201 0.31900001 -0.69599998 5
3.306 0.33000001 -0.66500002 5
3.424 0.34200001 -0.634 5
3.4949999 0.35100001 -0.59100002 4
3.6530001 0.368 -0.56 5
3.7920001 0.38299999 -0.52200001 6
3.2019999 0.345 -0.699 5
3.3 0.35600001 -0.66600001 5
3.4289999 0.37 -0.63700002 5
3.5320001 0.382 -0.60000002 5
3.645 0.39500001 -0.56099999 5
3.777 0.41 -0.523 7
3.2 0.37 -0.70099998 6
3.2980001 0.38100001 -0.66900003 7
3.4200001 0.396 -0.63800001 5
3.5250001 0.40799999 -0.60100001 5
3.6489999 0.42300001 -0.56400001 5
3.7809999 0.44 -0.52600002 6
3.1949999 0.39399999 -0.70300001 6
3.299 0.40700001 -0.67199999 5
3.4119999 0.421 -0.639 5
3.48 0.43000001 -0.59600002 4
3.645 0.45100001 -0.56699997 6
3.777 0.46799999 -0.528 6
3.191 0.419 -0.70499998 6
3.2880001 0.43200001 -0.67199999 5
3.414 0.44800001 -0.64300001 5
3.5190001 0.46200001 -0.60600001 5
3.6589999 0.48100001 -0.57200003 6
3.7709999 0.49599999 -0.52999997 6
3.1860001 0.44400001 -0.70599997 5
3.2939999 0.458 -0.676 5
3.4119999 0.47400001 -0.64499998 5
3.506 0.48800001 -0.60600001 5
3.648 0.50800002 -0.57300001 5
3.766 0.52399999 -0.53200001 7
3.187 0.46900001 -0.70999998 5
3.2839999 0.48199999 -0.67699999 5
3.408 0.5 -0.64700001 5
3.484 0.51099998 -0.60600001 4
3.6270001 0.53200001 -0.57300001 5
3.7690001 0.55299997 -0.53600001 6
3.178 0.49200001 -0.71100003 5
3.2869999 0.509 -0.68099999 5
3.4030001 0.52600002 -0.64899999 5
3.503 0.54100001 -0.61199999 5
3.6110001 0.55699998 -0.57300001 4
3.76 0.57999998 -0.537 6
3.177 0.51700002 -0.71399999 7
3.267 0.53100002 -0.68000001 5
3.382 0.54900002 -0.648 6
3.4690001 0.56199998 -0.60900003 4
3.605 0.58399999 -0.57499999 4
3.7420001 0.60600001 -0.53799999 5
3.174 0.54100001 -0.71600002 6
3.2639999 0.55500001 -0.68199998 5
3.3870001 0.57499999 -0.653 5
3.5039999 0.59399998 -0.61799997 6
3.6199999 0.61299998 -0.58099997 5
3.7579999 0.63700002 -0.54299998 5
3.171 0.565 -0.71899998 5
3.27 0.58099997 -0.68699998 5
3.372 0.59799999 -0.653 5
0 0 0 50
3.619 0.64099997 -0.58399999 5
3.7650001 0.66600001 -0.54699999 6
3.1630001 0.588 -0.72000003 6
3.267 0.60600001 -0.68900001 5
3.3559999 0.62099999 -0.653 4
3.4920001 0.64499998 -0.62199998 6
3.5899999 0.662 -0.58200002 4
3.747 0.69 -0.54799998 6
3.155 0.611 -0.722 6
3.2620001 0.62900001 -0.69199997 5
3.378 0.64999998 -0.66000003 5
3.487 0.67000002 -0.625 5
3.6159999 0.69400001 -0.58999997 6
3.756 0.72000003 -0.55199999 6
3.155 0.634 -0.72500002 5
3.2550001 0.65200001 -0.69300002 5
3.3770001 0.67500001 -0.66399997 5
3.48 0.69400001 -0.62699997 5
3.6070001 0.71799999 -0.59100002 6
3.73 0.74199998 -0.55199999 5
3.1400001 0.65499997 -0.72500002 7
3.247 0.67500001 -0.69499999 5
3.3729999 0.699 -0.66600001 5
3.484 0.72100002 -0.63099998 6
3.5840001 0.74000001 -0.59100002 4
3.7309999 0.76899999 -0.55500001 5
3.145 0.68000001 -0.72899997 6
3.25 0.69999999 -0.699 5
3.368 0.72299999 -0.66799998 5
3.47 0.74299997 -0.63099998 5
3.5899999 0.76800001 -0.59500003 5
3.7260001 0.79500002 -0.55800003 5
3.1500001 0.704 -0.73400003 5
3.2460001 0.72299999 -0.70099998 6
3.3570001 0.74599999 -0.66900003 6
3.46 0.76599997 -0.63300002 5
3.5999999 0.796 -0.60000002 6
3.72 0.82099998 -0.56 6
3.138 0.72500002 -0.73400003 7
3.2479999 0.74699998 -0.70499998 5
3.362 0.77100003 -0.67400002 6
3.4260001 0.78399998 -0.63 4
3.586 0.81800002 -0.60100001 6
3.717 0.84600002 -0.56300002 6
3.132 0.74599999 -0.736 6
3.2290001 0.76599997 -0.704 6
3.3499999 0.79299998 -0.67500001 6
3.447 0.81300002 -0.63700002 5
3.5480001 0.83499998 -0.597 5
3.7130001 0.87099999 -0.565 6
3.1270001 0.76800001 -0.73799998 7
3.23 0.79000002 -0.708 6
3.3429999 0.815 -0.676 6
0 0 0 50
3.5769999 0.86699998 -0.60600001 6
3.7 0.89399999 -0.56599998 5
3.1159999 0.787 -0.73900002 4
3.2130001 0.80900002 -0.70700002 6
3.3429999 0.838 -0.68000001 6
3.448 0.86199999 -0.64300001 5
3.579 0.89200002 -0.60900003 6
3.694 0.91799998 -0.56800002 5
3.1140001 0.80900002 -0.74199998 6
3.211 0.83099997 -0.70999998 10
3.339 0.86000001 -0.68199998 5
3.444 0.884 -0.64600003 5
3.5680001 0.91399997 -0.61000001 6
3.7 0.94499999 -0.57200003 6
3.1170001 0.83200002 -0.74599999 7
3.21 0.85299999 -0.713 8
3.3269999 0.88099998 -0.68199998 6
3.4449999 0.90899998 -0.64899999 6
3.5409999 0.93099999 -0.60799998 5
3.698 0.97000003 -0.57499999 6
3.1129999 0.85299999 -0.74800003 5
3.211 0.87599999 -0.71600002 6
3.3239999 0.903 -0.685 5
3.4400001 0.93099999 -0.65100002 5
3.5580001 0.95999998 -0.61400002 5
3.6830001 0.991 -0.57599998 6
3.115 0.875 -0.75099999 7
3.2 0.89499998 -0.71700001 7
3.3239999 0.92500001 -0.68800002 6
3.4460001 0.95599997 -0.65499997 6
3.543 0.98000002 -0.61500001 5
3.6619999 1.01 -0.57499999 5
3.098 0.89099997 -0.75 6
3.204 0.91799998 -0.72100002 6
3.3210001 0.94700003 -0.69 5
3.418 0.97100002 -0.65200001 6
3.53 1 -0.61500001 5
0 0 0 50
3.1029999 0.91399997 -0.75400001 5
3.204 0.93900001 -0.72299999 6
3.319 0.96899998 -0.69199997 6
3.404 0.99000001 -0.653 5
3.546 1.027 -0.62099999 5
3.687 1.0650001 -0.58499998 7
3.099 0.93300003 -0.75599998 5
3.2030001 0.95999998 -0.72600001 6
3.323 0.991 -0.69599998 5
3.405 1.012 -0.65499997 5
3.549 1.051 -0.62400001 6
3.6470001 1.077 -0.58099997 5
3.0969999 0.95300001 -0.759 5
3.198 0.97899997 -0.727 5
3.3 1.006 -0.69400001 5
3.4070001 1.035 -0.65799999 5
3.54 1.071 -0.625 6
3.671 1.108 -0.58700001 6
3.092 0.97100002 -0.75999999 7
3.1860001 0.99599999 -0.727 6
3.3150001 1.0319999 -0.699 6
3.3959999 1.053 -0.65899998 5
3.533 1.091 -0.62599999 6
3.678 1.132 -0.58999997 7
3.0869999 0.99000001 -0.76099998 6
3.1889999 1.017 -0.73000002 6
3.3180001 1.053 -0.70200002 6
3.385 1.0700001 -0.65899998 4
3.5510001 1.119 -0.63099998 6
3.6570001 1.149 -0.58899999 6
3.0550001 0.99800003 -0.755 4
3.187 1.036 -0.73199999 6
3.293 1.066 -0.699 5
3.415 1.101 -0.667 6
3.5350001 1.135 -0.63099998 6
3.6659999 1.173 -0.59299999 7
3.0810001 1.026 -0.764 6
3.188 1.056 -0.73400003 6
3.3 1.0880001 -0.70300001 6
3.414 1.1210001 -0.66900003 5
3.526 1.153 -0.63099998 5
3.6470001 1.189 -0.59200001 5
3.0840001 1.045 -0.76700002 5
3.1819999 1.073 -0.73500001 7
3.2950001 1.1059999 -0.704 5
3.3900001 1.132 -0.66600001 5
3.507 1.1670001 -0.62900001 5
0 0 0 50
3.0799999 1.062 -0.76800001 5
3.1830001 1.091 -0.73699999 6
3.296 1.125 -0.70599997 6
3.405 1.1569999 -0.67000002 6
3.5250001 1.193 -0.634 5
3.6630001 1.2359999 -0.59799999 7
3.082 1.08 -0.76999998 6
3.181 1.109 -0.73799998 6
3.3080001 1.147 -0.70999998 6
3.4000001 1.174 -0.671 6
3.5039999 1.205 -0.63200003 5
3.652 1.252 -0.597 6
3.0769999 1.095 -0.77100003 6
3.1719999 1.123 -0.73799998 5
3.2869999 1.158 -0.70700002 6
3.3829999 1.187 -0.66900003 5
3.527 1.232 -0.63700002 6
3.6570001 1.273 -0.59899998 7
3.0769999 1.112 -0.77200001 5
3.1760001 1.141 -0.74000001 5
3.2880001 1.176 -0.708 6
0 0 0 0
3.526 1.25 -0.63800001 6
3.642 1.2869999 -0.59799999 6
3.0739999 1.127 -0.77200001 6
3.1760001 1.158 -0.741 6
3.293 1.1950001 -0.70999998 6
3.4070001 1.2309999 -0.676 6
3.4979999 1.258 -0.634 5
3.6659999 1.314 -0.602 7
3.075 1.143 -0.77399999 6
3.1819999 1.176 -0.74400002 6
3.289 1.209 -0.70999998 6
3.402 1.245 -0.67500001 6
3.5190001 1.283 -0.63800001 6
3.664 1.331 -0.602 7
3.0840001 1.161 -0.77600002 5
3.178 1.1900001 -0.74299997 6
3.267 1.217 -0.70599997 5
3.4030001 1.262 -0.676 6
3.526 1.302 -0.63999999 6
3.665 1.348 -0.60299999 7
3.0669999 1.169 -0.773 5
3.174 1.202 -0.74299997 6
3.3 1.244 -0.71399999 6
3.3640001 1.262 -0.66900003 4
3.527 1.318 -0.64099997 6
3.651 1.36 -0.60100001 6
3.079 1.187 -0.77600002 5
3.175 1.217 -0.74299997 6
3.2939999 1.256 -0.713 6
3.385 1.285 -0.67299998 5
3.513 1.3279999 -0.63800001 5
3.6689999 1.383 -0.60399997 7
3.0769999 1.199 -0.77600002 6
3.1760001 1.2309999 -0.74400002 6
3.2950001 1.27 -0.713 7
3.3959999 1.303 -0.67500001 5
3.527 1.349 -0.63999999 6
3.6400001 1.387 -0.59899998 6
3.079 1.2130001 -0.77600002 6
3.1819999 1.2460001 -0.745 6
3.2920001 1.283 -0.71200001 6
3.415 1.325 -0.67900002 6
3.533 1.365 -0.64099997 6
3.6619999 1.41 -0.602 6
3.0799999 1.225 -0.77600002 6
3.1789999 1.257 -0.74400002 6
3.3039999 1.3 -0.71399999 6
3.3900001 1.3279999 -0.67299998 5
3.5250001 1.375 -0.639 6
3.6530001 1.42 -0.60000002 6
3.0840001 1.238 -0.77700001 5
3.1719999 1.266 -0.74199998 6
3.2869999 1.3049999 -0.70999998 6
3.411 1.348 -0.67699999 6
3.5079999 1.381 -0.63499999 5
3.6689999 1.439 -0.602 6
3.0810001 1.247 -0.77600002 7
3.188 1.283 -0.74400002 5
3.3 1.321 -0.71200001 6
3.415 1.3609999 -0.67699999 6
3.5190001 1.397 -0.63599998 5
3.6630001 1.448 -0.59899998 6
3.085 1.258 -0.77499998 7
3.1860001 1.2920001 -0.74299997 7
3.2809999 1.324 -0.70700002 5
