# .PCD v0.7 - Point Cloud Data file format
VERSION 0.7
FIELDS x y z intensity
SIZE 4 4 4 4
TYPE F F F F
COUNT 1 1 1 1
WIDTH 1641
HEIGHT 1
VIEWPOINT 0 0 0 1 0 0 0
POINTS 1641
DATA ascii
3.4860001 -0.53600001 -0.57800001 5
3.6040001 -0.54900002 -0.53899997 6
3.737 -0.56300002 -0.49900001 6
3.848 -0.574 -0.45199999 5
4 -0.59100002 -0.40700001 4
4.1820002 -0.61299998 -0.36000001 6
3.4809999 -0.50599998 -0.57599998 5
0 0 0 50
3.744 -0.53299999 -0.49900001 6
3.8740001 -0.546 -0.454 5
4.0349998 -0.56300002 -0.40900001 6
4.1890001 -0.57999998 -0.359 7
3.4920001 -0.47799999 -0.57700002 5
3.6170001 -0.49000001 -0.53899997 5
3.7279999 -0.5 -0.49599999 5
3.859 -0.51200002 -0.45199999 5
3.9990001 -0.52499998 -0.405 5
4.2020001 -0.54699999 -0.359 7
3.4990001 -0.44999999 -0.57700002 5
3.625 -0.461 -0.53899997 5
3.7290001 -0.46900001 -0.495 5
3.881 -0.48300001 -0.454 5
4.046 -0.498 -0.40900001 5
4.1999998 -0.51200002 -0.359 7
3.5039999 -0.421 -0.57700002 5
0 0 0 50
3.7420001 -0.44 -0.49599999 5
3.8989999 -0.45300001 -0.45500001 6
4.0450001 -0.465 -0.40799999 5
4.2069998 -0.479 -0.359 7
3.5090001 -0.39199999 -0.57700002 5
3.635 -0.40200001 -0.54000002 6
3.7609999 -0.41100001 -0.498 6
3.8989999 -0.421 -0.45500001 6
4.0489998 -0.433 -0.40799999 5
4.2140002 -0.44600001 -0.359 7
3.5120001 -0.36399999 -0.57700002 5
3.6199999 -0.37 -0.537 5
3.737 -0.377 -0.495 5
3.878 -0.38699999 -0.45199999 5
4.0510001 -0.40000001 -0.40799999 5
4.2210002 -0.412 -0.359 7
3.5120001 -0.33399999 -0.57700002 5
3.6259999 -0.34099999 -0.53799999 5
3.74 -0.347 -0.495 4
3.8840001 -0.35600001 -0.45199999 5
4.0469999 -0.36700001 -0.40799999 5
4.23 -0.37900001 -0.36000001 7
0 0 0 50
3.6329999 -0.31200001 -0.53799999 5
3.777 -0.31999999 -0.5 5
3.902 -0.32600001 -0.454 5
4.0580001 -0.33500001 -0.40900001 5
4.2319999 -0.345 -0.36000001 7
3.5179999 -0.27700001 -0.57800001 5
3.612 -0.28 -0.53500003 4
3.756 -0.28799999 -0.49700001 5
3.8940001 -0.294 -0.454 5
4.059 -0.303 -0.40900001 5
4.2280002 -0.31200001 -0.36000001 7
3.5179999 -0.248 -0.57800001 5
3.651 -0.25400001 -0.54100001 5
3.7420001 -0.257 -0.495 4
3.898 -0.264 -0.454 5
4.0599999 -0.271 -0.41 5
4.2280002 -0.278 -0.361 6
3.523 -0.22 -0.579 5
3.6370001 -0.22400001 -0.54000002 5
3.7579999 -0.228 -0.498 5
3.9230001 -0.234 -0.458 6
0 0 0 50
4.2350001 -0.245 -0.36199999 7
3.527 -0.192 -0.57999998 5
3.6429999 -0.19499999 -0.54100001 4
3.7820001 -0.199 -0.50199997 6
3.8970001 -0.20100001 -0.45500001 5
4.0619998 -0.207 -0.41100001 5
4.2350001 -0.212 -0.36199999 7
3.526 -0.163 -0.58099997 5
3.6530001 -0.16599999 -0.54299998 6
3.7780001 -0.168 -0.50199997 5
3.898 -0.171 -0.456 5
4.0830002 -0.175 -0.414 6
4.237 -0.17900001 -0.36399999 7
3.526 -0.13500001 -0.58099997 5
3.638 -0.13699999 -0.542 5
3.783 -0.139 -0.50300002 5
3.921 -0.141 -0.46000001 5
4.0700002 -0.14300001 -0.41299999 5
4.237 -0.146 -0.36399999 7
3.5239999 -0.107 -0.58200002 5
3.642 -0.108 -0.54299998 5
3.7709999 -0.109 -0.50199997 5
3.9200001 -0.11 -0.46000001 5
0 0 0 50
4.2360001 -0.113 -0.36500001 6
3.533 -0.079999998 -0.58399999 6
3.6440001 -0.079000004 -0.54400003 6
3.7839999 -0.079999998 -0.505 5
3.9200001 -0.079999998 -0.461 6
4.0619998 -0.079999998 -0.41499999 5
4.237 -0.081 -0.36700001 5
3.5280001 -0.052000001 -0.58399999 5
3.648 -0.050999999 -0.546 6
3.7679999 -0.050000001 -0.50400001 5
3.9170001 -0.050000001 -0.46200001 5
4.0799999 -0.050000001 -0.41800001 6
4.2389998 -0.048999999 -0.368 7
3.5280001 -0.024 -0.58600003 5
3.6530001 -0.023 -0.54799998 5
3.7850001 -0.021 -0.50800002 6
3.9000001 -0.018999999 -0.46200001 5
4.0599999 -0.017999999 -0.417 5
4.2309999 -0.016000001 -0.36899999 6
3.5280001 0.003 -0.58700001 5
3.6459999 0.0049999999 -0.54799998 5
3.783 0.0070000002 -0.509 5
0 0 0 50
4.0700002 0.012 -0.419 5
4.2360001 0.015 -0.37099999 6
3.5309999 0.029999999 -0.58899999 5
3.648 0.033 -0.55000001 5
3.7850001 0.037 -0.51099998 6
3.9319999 0.039999999 -0.46799999 5
4.0700002 0.044 -0.421 5
4.2449999 0.048 -0.373 7
3.533 0.057999998 -0.59100002 6
3.6440001 0.061999999 -0.551 6
3.776 0.066 -0.51099998 6
3.8900001 0.07 -0.465 5
4.0760002 0.075000003 -0.42300001 6
4.2309999 0.079999998 -0.37400001 6
3.5280001 0.085000001 -0.59200001 6
3.6429999 0.090000004 -0.55199999 6
3.7409999 0.093999997 -0.50800002 5
3.9000001 0.098999999 -0.46799999 5
4.0640001 0.105 -0.42399999 5
4.2259998 0.111 -0.375 6
3.523 0.112 -0.59200001 6
0 0 0 50
3.756 0.122 -0.51200002 5
3.9070001 0.12899999 -0.47 5
4.0370002 0.134 -0.42300001 5
4.2220001 0.142 -0.37599999 6
3.527 0.139 -0.59500003 5
3.642 0.145 -0.55599999 5
3.773 0.15099999 -0.51599997 5
3.902 0.15800001 -0.472 5
4.039 0.16500001 -0.42500001 5
4.2220001 0.17399999 -0.37799999 6
3.5179999 0.16599999 -0.59500003 5
3.6329999 0.17200001 -0.55599999 5
3.756 0.17900001 -0.51499999 5
3.882 0.186 -0.47099999 5
4.0370002 0.19499999 -0.42699999 5
4.2090001 0.204 -0.37900001 5
3.5250001 0.193 -0.59799999 5
3.632 0.199 -0.55800003 5
3.74 0.206 -0.51499999 5
3.8789999 0.215 -0.47299999 4
4.039 0.22499999 -0.42899999 5
4.2199998 0.236 -0.382 6
3.5150001 0.219 -0.59899998 6
3.6289999 0.226 -0.56 5
3.73 0.233 -0.51599997 4
0 0 0 50
4.0380001 0.255 -0.43099999 5
4.2189999 0.26699999 -0.384 6
3.5150001 0.245 -0.60100001 5
3.6270001 0.25400001 -0.56199998 6
3.733 0.26199999 -0.51800001 5
3.8800001 0.273 -0.477 5
4.0630002 0.28600001 -0.43599999 6
4.2080002 0.29699999 -0.38499999 5
3.5090001 0.271 -0.602 6
3.631 0.28099999 -0.56400001 6
3.7460001 0.28999999 -0.52200001 5
3.8859999 0.301 -0.47999999 5
4.0419998 0.31400001 -0.43599999 5
4.2210002 0.329 -0.389 6
3.506 0.29699999 -0.60399997 6
3.6040001 0.30500001 -0.56300002 5
3.7609999 0.31900001 -0.52700001 6
3.869 0.32800001 -0.47999999 4
4.0320001 0.34299999 -0.43700001 5
4.1939998 0.35699999 -0.389 5
3.51 0.32300001 -0.60699999 5
3.6229999 0.333 -0.56800002 5
3.766 0.347 -0.52999997 6
3.8940001 0.35800001 -0.486 6
4.026 0.37099999 -0.43900001 5
4.2220001 0.389 -0.39399999 6
3.5039999 0.34799999 -0.60799998 6
3.619 0.36000001 -0.56900001 5
0 0 0 50
3.878 0.38499999 -0.486 6
4.013 0.398 -0.43900001 4
4.217 0.419 -0.396 6
3.497 0.373 -0.60900003 6
3.6270001 0.38600001 -0.57300001 5
3.7550001 0.40000001 -0.53299999 6
3.8759999 0.412 -0.48800001 5
4.02 0.42699999 -0.442 5
4.1989999 0.447 -0.396 6
3.497 0.398 -0.61199999 6
3.615 0.41100001 -0.574 5
3.7460001 0.42500001 -0.53399998 5
3.882 0.44 -0.491 5
4.0110002 0.45500001 -0.44400001 4
4.198 0.47600001 -0.398 6
3.497 0.42300001 -0.61400002 6
3.6099999 0.43599999 -0.57499999 5
3.7479999 0.45199999 -0.537 6
3.8659999 0.465 -0.491 5
4.013 0.48300001 -0.44600001 5
4.1820002 0.50300002 -0.39899999 5
3.49 0.447 -0.61500001 6
3.609 0.461 -0.57700002 6
3.7279999 0.47600001 -0.53600001 5
3.895 0.49599999 -0.498 6
0 0 0 50
4.1739998 0.53100002 -0.40099999 5
3.4949999 0.472 -0.61799997 6
3.602 0.486 -0.579 6
3.7160001 0.5 -0.537 5
3.8759999 0.52100003 -0.498 5
4.0180001 0.53899997 -0.45199999 5
4.1739998 0.55900002 -0.403 5
3.4879999 0.49599999 -0.62 5
3.6010001 0.51099998 -0.58099997 5
3.7460001 0.52999997 -0.54299998 6
3.8629999 0.546 -0.498 5
4.0019999 0.56400001 -0.45199999 4
4.1799998 0.58899999 -0.40599999 6
3.483 0.51899999 -0.62099999 6
3.595 0.53399998 -0.58200002 6
3.7360001 0.55400002 -0.54400003 6
3.858 0.57099998 -0.5 5
4.0089998 0.59200001 -0.45500001 5
4.165 0.61400002 -0.40700001 5
3.4779999 0.542 -0.62199998 6
3.595 0.55900002 -0.58399999 6
3.7219999 0.57700002 -0.54400003 5
3.849 0.59600002 -0.50099999 5
4 0.61799997 -0.45699999 5
4.1529999 0.64099997 -0.40799999 4
3.477 0.56599998 -0.625 6
3.598 0.58399999 -0.58700001 6
3.7379999 0.60500002 -0.54900002 6
3.8599999 0.62300003 -0.505 6
3.993 0.64300001 -0.458 5
0 0 0 50
3.4660001 0.588 -0.625 6
3.5969999 0.60799998 -0.58899999 5
3.7290001 0.62800002 -0.55000001 6
3.881 0.65200001 -0.50999999 6
4.0040002 0.67199999 -0.461 6
4.1789999 0.69999999 -0.41499999 6
3.4719999 0.61199999 -0.62800002 6
3.596 0.63099998 -0.59100002 6
3.6960001 0.64700001 -0.54699999 5
3.8570001 0.67299998 -0.509 6
3.9949999 0.69599998 -0.46200001 5
4.1820002 0.727 -0.417 6
3.4660001 0.63300002 -0.62900001 6
3.5910001 0.65399998 -0.59299999 6
3.724 0.676 -0.55400002 6
3.881 0.70300001 -0.514 6
4.013 0.72500002 -0.46700001 6
4.1869998 0.755 -0.41999999 7
3.467 0.65600002 -0.63200003 6
3.596 0.67799997 -0.59600002 6
3.7320001 0.70099998 -0.55699998 6
3.8429999 0.72000003 -0.51099998 5
4.013 0.75 -0.46900001 6
4.1620002 0.77600002 -0.419 6
3.4649999 0.67799997 -0.63300002 6
3.5840001 0.69800001 -0.59500003 6
3.704 0.72000003 -0.55400002 5
0 0 0 50
4.0050001 0.77399999 -0.47 6
4.1539998 0.801 -0.41999999 7
3.461 0.699 -0.63499999 6
3.5869999 0.722 -0.59799999 6
3.721 0.74599999 -0.55900002 6
3.8659999 0.773 -0.51800001 6
3.9849999 0.79500002 -0.46900001 5
4.151 0.82599998 -0.42199999 7
3.4590001 0.72000003 -0.63599998 6
3.579 0.74299997 -0.59899998 6
3.7019999 0.76499999 -0.55800003 6
3.848 0.79299998 -0.51700002 6
4.0139999 0.82499999 -0.47400001 7
4.1560001 0.852 -0.42399999 6
3.454 0.741 -0.63700002 6
3.5769999 0.764 -0.60000002 6
3.717 0.79100001 -0.56199998 6
3.8640001 0.81999999 -0.52100003 6
4.0040002 0.847 -0.47400001 6
4.1719999 0.88 -0.42699999 6
3.4579999 0.76200002 -0.639 6
3.562 0.78200001 -0.59899998 6
3.7119999 0.81199998 -0.56199998 6
3.858 0.84100002 -0.52100003 7
4.0019999 0.87 -0.47499999 6
4.1570001 0.90100002 -0.42699999 6
3.4519999 0.78100002 -0.63999999 6
3.5810001 0.80699998 -0.60399997 6
3.7049999 0.83200002 -0.56300002 6
3.8299999 0.85699999 -0.51899999 6
3.9760001 0.88700002 -0.47400001 5
4.1459999 0.92299998 -0.42699999 6
3.45 0.801 -0.64099997 6
3.5769999 0.82700002 -0.60399997 6
3.6800001 0.84799999 -0.56 5
3.848 0.88300002 -0.52200001 6
4.0029998 0.91600001 -0.47799999 6
4.1550002 0.94800001 -0.42899999 6
3.46 0.82300001 -0.64399999 7
3.573 0.84600002 -0.60500002 6
3.71 0.875 -0.56599998 6
3.868 0.90899998 -0.52600002 7
3.9909999 0.93599999 -0.47799999 6
4.1529999 0.97100002 -0.43000001 6
3.454 0.84100002 -0.64399999 6
3.592 0.87099999 -0.60900003 5
3.6919999 0.89099997 -0.56400001 6
3.849 0.926 -0.52399999 6
3.9779999 0.954 -0.477 5
4.1560001 0.99400002 -0.43099999 6
3.4549999 0.86000001 -0.64499998 7
3.5699999 0.88499999 -0.60600001 6
3.7079999 0.91500002 -0.56699997 7
3.8469999 0.94599998 -0.52499998 7
3.9749999 0.97399998 -0.477 5
4.177 1.021 -0.43399999 7
3.4530001 0.87800002 -0.64499998 6
3.5680001 0.903 -0.60600001 6
3.6960001 0.93099999 -0.56599998 6
3.8410001 0.96399999 -0.52399999 6
3.98 0.99599999 -0.47799999 5
4.1539998 1.0369999 -0.43099999 6
3.4530001 0.89600003 -0.64600003 5
3.5769999 0.92299998 -0.60799998 6
3.7 0.95099998 -0.56699997 6
3.862 0.98900002 -0.528 7
3.994 1.02 -0.47999999 6
4.151 1.057 -0.43099999 7
3.454 0.91299999 -0.64600003 6
3.5699999 0.94 -0.60799998 6
3.7160001 0.97399998 -0.56999999 7
3.8369999 1.002 -0.52499998 6
3.9920001 1.039 -0.47999999 6
4.152 1.0779999 -0.43200001 6
3.454 0.94700003 -0.64700001 6
3.575 0.97500002 -0.60900003 7
3.7090001 1.007 -0.56900001 6
3.8570001 1.044 -0.52700001 6
3.9909999 1.076 -0.479 5
4.1700001 1.122 -0.433 7
3.46 0.96399999 -0.648 6
3.596 0.99699998 -0.61199999 6
3.711 1.025 -0.56900001 6
3.8380001 1.056 -0.52399999 5
3.9960001 1.096 -0.47999999 6
4.164 1.1390001 -0.43200001 6
3.461 0.98000002 -0.648 6
3.5769999 1.008 -0.60799998 6
3.721 1.044 -0.56999999 6
3.8599999 1.079 -0.52700001 6
4.0079999 1.1160001 -0.47999999 6
4.1919999 1.164 -0.43399999 7
3.46 0.99400002 -0.64700001 7
3.5829999 1.025 -0.60900003 6
3.7179999 1.059 -0.56900001 6
3.8529999 1.0930001 -0.52499998 6
3.9979999 1.13 -0.47799999 5
4.1739998 1.177 -0.43099999 6
3.4630001 1.0089999 -0.64700001 7
3.598 1.043 -0.611 6
3.6989999 1.068 -0.565 6
3.849 1.107 -0.523 6
4.0029998 1.147 -0.47799999 5
4.1830001 1.196 -0.43099999 6
3.47 1.024 -0.64700001 6
3.589 1.0549999 -0.60799998 6
0 0 0 50
3.8710001 1.128 -0.52499998 6
4.0139999 1.166 -0.47799999 6
4.1830001 1.212 -0.42899999 6
3.4719999 1.038 -0.64700001 7
3.5999999 1.071 -0.60900003 6
3.7279999 1.105 -0.56699997 6
3.8499999 1.136 -0.52100003 5
4.0250001 1.184 -0.47799999 6
4.1900001 1.229 -0.428 6
3.474 1.051 -0.64600003 6
3.6140001 1.0880001 -0.61000001 6
3.7149999 1.114 -0.56400001 5
3.865 1.154 -0.52100003 6
4.0240002 1.198 -0.47600001 6
4.1830001 1.242 -0.42500001 4
3.484 1.066 -0.64600003 6
3.598 1.095 -0.60500002 7
3.717 1.127 -0.56199998 6
3.8670001 1.168 -0.51999998 6
4.0219998 1.211 -0.47400001 5
4.197 1.26 -0.42500001 5
3.4860001 1.077 -0.64499998 6
3.6129999 1.1109999 -0.60600001 6
3.7190001 1.1390001 -0.56 5
3.8759999 1.182 -0.51899999 6
4.0370002 1.228 -0.47299999 6
4.2340002 1.284 -0.426 7
3.4990001 1.091 -0.64499998 5
3.6359999 1.1289999 -0.60799998 6
3.7290001 1.153 -0.56 5
3.8759999 1.194 -0.51700002 5
4.04 1.24 -0.47099999 4
4.257 1.303 -0.426 8
3.4879999 1.097 -0.64099997 6
3.6140001 1.132 -0.602 6
3.7460001 1.168 -0.56 6
3.8840001 1.207 -0.51499999 6
4.052 1.255 -0.47 6
4.2220001 1.304 -0.41999999 5
3.5050001 1.112 -0.64099997 6
3.6370001 1.148 -0.60299999 6
3.7409999 1.176 -0.55599999 5
3.8970001 1.221 -0.514 6
4.0549998 1.266 -0.46700001 5
4.2259998 1.3150001 -0.417 5
3.4990001 1.118 -0.63800001 5
3.6210001 1.151 -0.59799999 6
3.7460001 1.186 -0.55500001 5
3.9130001 1.234 -0.51300001 6
4.0679998 1.279 -0.465 5
4.2470002 1.332 -0.41600001 7
3.517 1.131 -0.63800001 7
3.648 1.1670001 -0.59899998 6
3.756 1.197 -0.55299997 5
3.905 1.24 -0.509 5
4.0760002 1.29 -0.463 5
4.2509999 1.342 -0.41299999 5
3.5120001 1.136 -0.63499999 6
3.642 1.1720001 -0.59500003 6
3.7650001 1.206 -0.551 6
3.911 1.249 -0.50700003 5
4.0869999 1.301 -0.461 6
4.2639999 1.354 -0.41 6
3.53 1.147 -0.63499999 7
3.638 1.177 -0.59100002 6
3.766 1.2130001 -0.54799998 6
3.9230001 1.2589999 -0.50400001 5
4.0999999 1.312 -0.45899999 6
4.2779999 1.365 -0.40799999 5
3.53 1.152 -0.63099998 7
3.6689999 1.192 -0.59299999 6
0 0 0 50
3.9360001 1.2690001 -0.50300002 5
4.1069999 1.3200001 -0.45500001 5
4.2940001 1.376 -0.405 4
3.5339999 1.1569999 -0.62800002 7
3.6860001 1.202 -0.59200001 6
3.7820001 1.228 -0.54299998 5
3.9449999 1.276 -0.5 4
4.1279998 1.331 -0.454 4
4.303 1.3839999 -0.40200001 5
3.5480001 1.165 -0.62699997 7
3.665 1.198 -0.58499998 6
3.8 1.237 -0.542 5
3.954 1.283 -0.49700001 4
4.1500001 1.342 -0.45199999 4
4.3119998 1.391 -0.398 6
3.5550001 1.17 -0.625 7
3.675 1.204 -0.58200002 6
3.8099999 1.243 -0.53899997 6
3.9679999 1.29 -0.49399999 4
4.1620002 1.349 -0.449 4
4.3200002 1.397 -0.39399999 5
3.556 1.1720001 -0.62099999 7
3.675 1.205 -0.57800001 5
3.819 1.248 -0.53600001 6
3.984 1.2970001 -0.49200001 4
4.1719999 1.354 -0.44600001 4
4.3330002 1.403 -0.391 5
3.582 1.181 -0.62099999 6
3.6930001 1.212 -0.57700002 6
3.825 1.25 -0.53200001 6
3.9920001 1.301 -0.48800001 5
4.158 1.351 -0.43900001 4
4.3520002 1.41 -0.38800001 5
3.602 1.187 -0.62 7
3.707 1.216 -0.57499999 6
3.8340001 1.253 -0.52899998 6
0 0 0 50
4.1830001 1.359 -0.43700001 4
4.3610001 1.413 -0.38299999 5
3.5940001 1.184 -0.61400002 7
3.734 1.224 -0.574 6
3.8469999 1.257 -0.52600002 5
4.02 1.309 -0.48199999 6
4.191 1.36 -0.433 4
4.3870001 1.421 -0.38100001 4
3.6029999 1.1849999 -0.611 7
3.7360001 1.223 -0.56999999 6
3.8540001 1.257 -0.523 5
4.0289998 1.3099999 -0.479 6
4.21 1.364 -0.43000001 4
4.3959999 1.421 -0.37599999 5
3.609 1.184 -0.60799998 7
3.724 1.217 -0.56400001 6
3.865 1.258 -0.51899999 5
4.0359998 1.309 -0.47400001 5
4.2319999 1.369 -0.42699999 4
4.4050002 1.421 -0.37099999 5
3.6289999 1.187 -0.60600001 6
3.733 1.216 -0.56 6
3.872 1.256 -0.51499999 5
4.0510001 1.3099999 -0.47099999 4
4.2449999 1.369 -0.42300001 3
4.4299998 1.425 -0.368 6
3.6300001 1.183 -0.602 7
3.7509999 1.217 -0.55800003 6
0 0 0 50
4.0619998 1.309 -0.46700001 4
4.2639999 1.37 -0.419 3
4.4400001 1.423 -0.36300001 5
3.625 1.176 -0.59600002 6
3.7679999 1.217 -0.55500001 6
3.908 1.258 -0.50999999 5
4.0780001 1.308 -0.46399999 5
4.2649999 1.365 -0.414 4
4.4619999 1.424 -0.359 4
3.652 1.179 -0.59600002 6
3.7679999 1.211 -0.551 6
3.9159999 1.2539999 -0.50599998 4
4.0910001 1.306 -0.46000001 6
4.2719998 1.36 -0.40900001 4
4.4650002 1.418 -0.354 5
3.6670001 1.177 -0.59299999 6
3.776 1.206 -0.54699999 5
3.931 1.252 -0.50300002 5
4.1009998 1.301 -0.456 5
4.2919998 1.359 -0.40599999 5
4.4889998 1.418 -0.34999999 4
3.6689999 1.169 -0.58899999 7
3.8150001 1.211 -0.54699999 7
3.931 1.243 -0.498 5
4.1240001 1.3 -0.45300001 7
4.3039999 1.353 -0.40200001 5
4.5009999 1.4119999 -0.34599999 5
3.6849999 1.166 -0.58700001 6
3.789 1.194 -0.53899997 4
3.9530001 1.2410001 -0.495 6
0 0 0 50
4.3099999 1.346 -0.39700001 4
4.5180001 1.408 -0.34099999 4
3.6830001 1.156 -0.58099997 6
3.8280001 1.197 -0.54000002 6
3.9719999 1.237 -0.493 6
4.1360002 1.284 -0.44400001 5
4.3400002 1.344 -0.39399999 4
4.526 1.399 -0.33700001 4
3.701 1.152 -0.579 6
3.8139999 1.182 -0.53299999 5
3.977 1.228 -0.48800001 6
4.1469998 1.277 -0.44 5
4.3400002 1.3329999 -0.389 4
4.5479999 1.393 -0.33199999 4
3.7030001 1.141 -0.57499999 6
3.836 1.177 -0.53100002 6
3.9860001 1.219 -0.48500001 5
4.178 1.274 -0.43799999 4
4.355 1.325 -0.38499999 6
4.553 1.382 -0.32800001 4
3.6930001 1.126 -0.56900001 5
3.848 1.169 -0.52700001 6
3.994 1.209 -0.47999999 5
4.171 1.2589999 -0.433 4
4.3649998 1.314 -0.38 6
4.5689998 1.373 -0.32300001 4
3.7260001 1.124 -0.56900001 6
3.8510001 1.1569999 -0.523 5
4.0110002 1.201 -0.47799999 6
4.1820002 1.248 -0.428 4
4.3860002 1.306 -0.377 7
4.5799999 1.3609999 -0.31900001 4
3.76 1.1210001 -0.56900001 6
3.8540001 1.1440001 -0.51899999 5
4.0250001 1.191 -0.47499999 6
4.1999998 1.239 -0.42500001 5
4.3979998 1.294 -0.373 4
4.5949998 1.349 -0.31400001 4
3.7509999 1.104 -0.56300002 7
3.878 1.137 -0.51700002 6
4.0380001 1.1799999 -0.47099999 6
4.2069998 1.226 -0.421 5
4.3969998 1.278 -0.368 4
4.5970001 1.3329999 -0.30899999 4
0 0 0 50
3.8989999 1.128 -0.51499999 6
4.0440001 1.166 -0.46700001 6
4.224 1.214 -0.41800001 7
4.4159999 1.266 -0.36500001 5
4.619 1.322 -0.30599999 4
3.7650001 1.0779999 -0.55699998 7
3.8989999 1.112 -0.51099998 6
4.0489998 1.151 -0.463 6
4.2249999 1.197 -0.414 4
4.4239998 1.251 -0.361 4
4.6230001 1.304 -0.301 4
3.7909999 1.0700001 -0.55599999 6
3.9059999 1.098 -0.50800002 6
4.0669999 1.1390001 -0.461 6
4.2470002 1.186 -0.41100001 6
4.4320002 1.234 -0.35699999 5
4.6409998 1.29 -0.29800001 4
3.79 1.053 -0.55199999 6
3.921 1.085 -0.505 6
4.072 1.123 -0.45699999 6
4.2459998 1.1670001 -0.40700001 6
4.4390001 1.217 -0.35299999 5
4.651 1.272 -0.294 4
3.7969999 1.0369999 -0.54900002 6
3.9319999 1.0700001 -0.50300002 6
4.0669999 1.103 -0.45300001 4
4.2519999 1.15 -0.403 6
4.4520001 1.201 -0.34900001 6
4.6500001 1.251 -0.289 4
3.809 1.023 -0.54699999 6
3.9419999 1.054 -0.5 6
4.085 1.089 -0.45100001 6
4.2620001 1.132 -0.40000001 5
4.4629998 1.183 -0.34599999 6
4.664 1.233 -0.28600001 4
0 0 0 50
3.9630001 1.041 -0.49900001 7
4.099 1.073 -0.44800001 6
4.2750001 1.115 -0.39700001 6
4.467 1.1619999 -0.34200001 6
4.0009999 1.039 -0.241 5
3.809 0.98500001 -0.53899997 7
3.954 1.018 -0.49399999 6
4.092 1.05 -0.44299999 5
4.276 1.094 -0.39399999 5
4.4590001 1.138 -0.338 4
3.98 1.013 -0.237 19
3.8210001 0.96899998 -0.537 6
3.9489999 0.99699998 -0.49000001 6
4.1110001 1.034 -0.442 7
4.2870002 1.075 -0.391 6
4.0190001 1.005 -0.301 10
3.9549999 0.986 -0.23199999 33
3.8239999 0.949 -0.53399998 7
3.96 0.97899997 -0.48800001 6
4.1269999 1.016 -0.44 6
4.2930002 1.054 -0.38800001 6
3.9979999 0.97799999 -0.296 23
3.9489999 0.96399999 -0.229 41
3.8299999 0.93000001 -0.53200001 7
3.97 0.95999998 -0.486 6
4.118 0.99199998 -0.43599999 4
4.1810002 1.0039999 -0.37400001 6
3.9809999 0.95300001 -0.292 28
3.9400001 0.94099998 -0.22499999 43
3.8410001 0.91100001 -0.52999997 6
3.9990001 0.94499999 -0.486 6
4.1220002 0.97000003 -0.433 5
4.0500002 0.94999999 -0.36000001 10
3.9649999 0.92699999 -0.28799999 31
3.931 0.917 -0.222 44
3.8629999 0.89499998 -0.52999997 6
3.9879999 0.92000002 -0.48199999 7
4.1329999 0.949 -0.43099999 6
4.0279999 0.92199999 -0.35499999 18
3.9590001 0.903 -0.285 34
3.918 0.89200002 -0.219 47
3.8599999 0.87199998 -0.52700001 6
3.9749999 0.89399999 -0.477 5
0 0 0 50
4.0089998 0.89499998 -0.34999999 22
3.948 0.87800002 -0.28099999 36
3.9159999 0.86900002 -0.21600001 50
3.845 0.84600002 -0.52200001 6
3.9879999 0.87300003 -0.47600001 7
4.1529999 0.90600002 -0.428 6
3.9990001 0.86900002 -0.347 25
3.9430001 0.85399997 -0.27900001 39
3.9100001 0.84500003 -0.213 53
3.8529999 0.824 -0.51999998 7
4.0050001 0.85299999 -0.47499999 7
4.1630001 0.88300002 -0.426 7
3.9960001 0.84500003 -0.34400001 27
3.938 0.82999998 -0.27599999 44
3.911 0.82200003 -0.211 56
3.8529999 0.801 -0.51800001 7
4.0079999 0.829 -0.47299999 7
4.1760001 0.861 -0.42500001 7
3.9879999 0.81900001 -0.34200001 29
3.934 0.80500001 -0.27399999 49
3.905 0.796 -0.20900001 63
3.8469999 0.77600002 -0.51499999 7
4 0.80299997 -0.47 6
4.1589999 0.83200002 -0.421 8
3.9849999 0.79400003 -0.33899999 33
0 0 0 50
3.9089999 0.773 -0.207 68
3.859 0.75400001 -0.51499999 7
4.033 0.78500003 -0.472 7
4.1929998 0.81199998 -0.42300001 8
3.9820001 0.76800001 -0.33700001 34
3.927 0.755 -0.26899999 66
3.9059999 0.74900001 -0.205 80
3.862 0.73100001 -0.51300001 7
4.0089998 0.755 -0.46700001 6
4.1589999 0.77999997 -0.417 7
3.993 0.745 -0.336 30
3.9389999 0.73199999 -0.26899999 69
3.9130001 0.72500002 -0.204 74
3.8610001 0.70599997 -0.51099998 7
4.0440001 0.73500001 -0.46900001 7
4.2010002 0.75999999 -0.41999999 7
0 0 0 50
3.951 0.70899999 -0.26800001 50
3.9260001 0.70200002 -0.204 73
3.8640001 0.68099999 -0.50999999 7
4.0110002 0.70300001 -0.46399999 6
4.1750002 0.72799999 -0.41499999 7
4.0320001 0.69999999 -0.336 20
3.9719999 0.68699998 -0.26800001 38
3.948 0.68000001 -0.20299999 56
3.8699999 0.65600002 -0.509 6
3.9979999 0.67400002 -0.461 6
4.171 0.69999999 -0.41299999 7
4.0549998 0.67699999 -0.33700001 14
3.9979999 0.66500002 -0.26800001 32
3.967 0.65700001 -0.20299999 47
3.859 0.62900001 -0.50599998 6
3.9909999 0.64600003 -0.45899999 5
4.1550002 0.66900003 -0.41 6
4.1170001 0.66000003 -0.34099999 8
4.0300002 0.64300001 -0.26899999 27
3.994 0.63499999 -0.20299999 40
3.8659999 0.60399997 -0.505 6
3.984 0.61900002 -0.456 5
4.1430001 0.63999999 -0.40799999 5
4.237 0.65100002 -0.34900001 6
4.066 0.62199998 -0.27000001 22
4.0229998 0.61199999 -0.204 34
3.855 0.57599998 -0.50300002 5
0 0 0 50
4.1409998 0.611 -0.40599999 4
4.3470001 0.63800001 -0.35699999 7
4.1079998 0.60000002 -0.27200001 14
4.0630002 0.58999997 -0.205 29
3.868 0.551 -0.50300002 6
3.9920001 0.565 -0.45500001 5
4.1690001 0.58600003 -0.40799999 7
4.3400002 0.60699999 -0.35600001 7
4.3410001 0.60399997 -0.287 6
4.1079998 0.56800002 -0.206 19
3.872 0.52499998 -0.50300002 6
4.0120001 0.54000002 -0.456 6
4.152 0.55500001 -0.405 6
4.3260002 0.57499999 -0.354 5
4.5240002 0.597 -0.29800001 6
4.7189999 0.62 -0.236 6
3.8570001 0.495 -0.5 6
4.0079999 0.51099998 -0.45500001 6
4.1539998 0.52600002 -0.405 6
4.3239999 0.54400003 -0.35299999 6
4.52 0.565 -0.29699999 6
4.723 0.58700001 -0.236 7
3.8759999 0.47 -0.50099999 5
3.9920001 0.48100001 -0.45199999 5
4.145 0.49599999 -0.403 5
4.3270001 0.514 -0.352 6
4.5310001 0.53399998 -0.29699999 7
4.7150002 0.55199999 -0.235 6
0 0 0 50
3.987 0.45199999 -0.45100001 5
4.1430001 0.46599999 -0.40200001 5
4.323 0.48199999 -0.35100001 5
4.5240002 0.50099999 -0.296 6
4.73 0.51999998 -0.235 7
3.855 0.41299999 -0.49700001 6
4.0370002 0.428 -0.456 6
4.1490002 0.43599999 -0.40200001 6
4.3140001 0.44999999 -0.34999999 5
4.5359998 0.47 -0.296 7
4.7309999 0.486 -0.234 6
3.8729999 0.38699999 -0.49900001 5
3.9790001 0.39300001 -0.449 5
4.145 0.40599999 -0.40099999 6
4.3179998 0.419 -0.34999999 6
4.5100002 0.43399999 -0.294 5
4.7360001 0.45199999 -0.234 7
3.8659999 0.35699999 -0.49700001 6
3.9779999 0.36399999 -0.44800001 5
4.1570001 0.377 -0.40200001 6
0 0 0 50
4.5139999 0.40200001 -0.294 5
4.7270002 0.417 -0.233 7
3.8610001 0.329 -0.49599999 5
3.9619999 0.33399999 -0.44600001 4
4.131 0.34400001 -0.39899999 4
4.3099999 0.35499999 -0.34799999 5
4.5110002 0.368 -0.29300001 6
4.7210002 0.38100001 -0.233 5
3.8440001 0.29899999 -0.49399999 6
3.974 0.30599999 -0.447 4
4.1389999 0.31400001 -0.40000001 5
4.309 0.32300001 -0.34799999 5
4.507 0.33399999 -0.29300001 6
4.7189999 0.34599999 -0.233 7
3.839 0.27000001 -0.493 5
3.973 0.27599999 -0.44600001 5
4.1259999 0.28299999 -0.398 5
4.3080001 0.29100001 -0.347 6
4.5029998 0.30000001 -0.292 6
4.7160001 0.31 -0.23199999 6
3.846 0.242 -0.493 5
3.9619999 0.245 -0.44499999 4
4.138 0.252 -0.39899999 6
4.322 0.259 -0.34799999 3
4.494 0.266 -0.29100001 6
4.717 0.27500001 -0.23199999 6
3.8369999 0.212 -0.49200001 6
3.9590001 0.215 -0.44400001 4
4.1209998 0.22 -0.39700001 5
0 0 0 50
4.5 0.23199999 -0.292 6
4.711 0.23800001 -0.23199999 7
3.8429999 0.183 -0.49200001 6
3.9579999 0.185 -0.44400001 5
4.119 0.189 -0.39700001 5
4.2930002 0.193 -0.34599999 5
4.4920001 0.197 -0.29100001 6
4.7220001 0.20299999 -0.23199999 8
3.8469999 0.154 -0.493 5
3.9530001 0.155 -0.44299999 5
4.1139998 0.15700001 -0.396 5
4.2969999 0.16 -0.34599999 5
4.4980001 0.163 -0.29100001 7
4.711 0.167 -0.23100001 8
3.829 0.125 -0.49000001 6
3.964 0.125 -0.44400001 5
4.1110001 0.126 -0.39500001 5
4.309 0.12800001 -0.34599999 6
4.4819999 0.12800001 -0.28999999 7
4.6869998 0.13 -0.23 8
3.816 0.094999999 -0.48800001 5
3.9679999 0.094999999 -0.44499999 5
4.1009998 0.093999997 -0.39399999 4
4.289 0.093999997 -0.345 6
4.4840002 0.093999997 -0.28999999 6
4.6869998 0.093000002 -0.23 7
3.8399999 0.066 -0.491 6
3.9549999 0.064000003 -0.44299999 5
4.0999999 0.061999999 -0.39399999 5
4.2870002 0.059999999 -0.34400001 6
4.4809999 0.059 -0.28999999 7
4.6900001 0.056000002 -0.23 8
0 0 0 50
3.9679999 0.033 -0.44400001 5
4.0949998 0.029999999 -0.39399999 4
4.29 0.027000001 -0.345 6
4.4770002 0.023 -0.289 7
4.6859999 0.02 -0.23 8
3.8310001 0.0060000001 -0.49000001 6
3.9549999 0.0020000001 -0.44299999 5
4.1009998 -0.001 -0.39399999 5
4.2789998 -0.0060000001 -0.34400001 6
4.4850001 -0.011 -0.28999999 7
4.677 -0.016000001 -0.229 8
3.8239999 -0.023 -0.48899999 6
3.9389999 -0.028000001 -0.44100001 5
4.0910001 -0.033 -0.39300001 4
4.2750001 -0.039999999 -0.34299999 5
4.4530001 -0.046 -0.28799999 5
4.6690001 -0.052999999 -0.228 6
3.8269999 -0.054000001 -0.48899999 5
3.9619999 -0.059999999 -0.44299999 6
4.0890002 -0.066 -0.39199999 5
4.2810001 -0.074000001 -0.34299999 6
4.4590001 -0.082000002 -0.28799999 6
4.652 -0.090000004 -0.228 4
3.8150001 -0.083999999 -0.48699999 5
3.95 -0.090999998 -0.442 5
4.1030002 -0.098999999 -0.39399999 5
4.2639999 -0.108 -0.34200001 4
4.4559999 -0.117 -0.287 5
4.6550002 -0.12800001 -0.228 5
3.8239999 -0.115 -0.48800001 5
3.9389999 -0.122 -0.44 5
4.0890002 -0.132 -0.39199999 5
0 0 0 50
4.4559999 -0.153 -0.287 5
4.651 -0.16500001 -0.227 6
3.8110001 -0.145 -0.486 5
3.9300001 -0.153 -0.43900001 5
4.0830002 -0.164 -0.391 5
4.256 -0.176 -0.34099999 5
4.4559999 -0.189 -0.287 6
4.6479998 -0.20299999 -0.226 6
3.8110001 -0.175 -0.486 5
3.9200001 -0.185 -0.43799999 4
4.0760002 -0.197 -0.38999999 5
4.2519999 -0.20999999 -0.34 5
4.467 -0.226 -0.287 6
4.6469998 -0.241 -0.226 5
3.8139999 -0.206 -0.486 5
3.9400001 -0.21799999 -0.44 5
4.0830002 -0.23 -0.391 5
4.256 -0.245 -0.34 5
4.454 -0.26199999 -0.28600001 6
4.6459999 -0.278 -0.226 5
3.799 -0.236 -0.484 5
3.9159999 -0.248 -0.43700001 4
4.0780001 -0.26300001 -0.38999999 5
4.2399998 -0.278 -0.33899999 4
4.4429998 -0.29699999 -0.285 5
0 0 0 50
3.8110001 -0.26800001 -0.486 5
3.921 -0.28 -0.43700001 5
4.0749998 -0.296 -0.389 5
4.2490001 -0.31400001 -0.33899999 5
4.4419999 -0.333 -0.28400001 6
4.6469998 -0.35499999 -0.22499999 6
3.8 -0.29800001 -0.484 4
3.9489999 -0.31400001 -0.44 5
4.0700002 -0.329 -0.38800001 5
4.263 -0.34999999 -0.33899999 6
4.4549999 -0.37099999 -0.285 6
4.652 -0.39399999 -0.22400001 7
3.7939999 -0.329 -0.48300001 5
3.9189999 -0.34400001 -0.43599999 5
4.0840001 -0.36300001 -0.389 5
4.2389998 -0.382 -0.33700001 5
4.4299998 -0.405 -0.28200001 4
4.6339998 -0.43099999 -0.223 7
3.789 -0.36000001 -0.48199999 5
3.9349999 -0.37799999 -0.43700001 5
4.066 -0.396 -0.38699999 5
0 0 0 50
4.4369998 -0.44299999 -0.28200001 6
4.6479998 -0.47099999 -0.223 7
3.7869999 -0.391 -0.48100001 5
3.928 -0.41 -0.43599999 6
4.0700002 -0.43000001 -0.38699999 5
4.244 -0.454 -0.336 5
4.4310002 -0.47999999 -0.28099999 5
4.6360002 -0.509 -0.221 8
3.79 -0.42300001 -0.48100001 5
3.9419999 -0.44499999 -0.43700001 5
4.0819998 -0.465 -0.38800001 5
4.257 -0.491 -0.33700001 6
4.4460001 -0.51899999 -0.28099999 6
4.6500001 -0.54900002 -0.221 7
3.7809999 -0.45300001 -0.479 5
3.937 -0.477 -0.43599999 5
0 0 0 50
4.2449999 -0.52499998 -0.33500001 6
4.4050002 -0.551 -0.278 7
4.6300001 -0.58600003 -0.219 6
3.7739999 -0.484 -0.47799999 5
3.9230001 -0.50800002 -0.43399999 5
4.0669999 -0.53200001 -0.38499999 5
4.2540002 -0.56199998 -0.33500001 7
4.4239998 -0.59100002 -0.278 6
4.6409998 -0.62699997 -0.219 7
3.7809999 -0.51700002 -0.47799999 5
3.9170001 -0.54000002 -0.43200001 5
4.0609999 -0.56599998 -0.38299999 5
4.2340002 -0.59500003 -0.33199999 5
4.434 -0.63 -0.278 6
4.6389999 -0.66600001 -0.21699999 7
3.7780001 -0.54799998 -0.477 5
3.9430001 -0.57700002 -0.435 5
4.0749998 -0.602 -0.384 5
0 0 0 50
4.4239998 -0.66600001 -0.27599999 6
4.6240001 -0.704 -0.215 6
3.783 -0.58099997 -0.477 5
3.9330001 -0.61000001 -0.433 6
4.0650001 -0.63599998 -0.382 5
4.2340002 -0.66799998 -0.33000001 4
4.4349999 -0.70599997 -0.27599999 6
4.6329999 -0.745 -0.215 7
3.7820001 -0.61400002 -0.47600001 6
3.904 -0.63800001 -0.42899999 5
4.0609999 -0.66900003 -0.38100001 6
4.2410002 -0.70499998 -0.33000001 6
4.4190001 -0.74199998 -0.273 7
4.6370001 -0.78600001 -0.213 8
3.773 -0.64399999 -0.47499999 6
3.9200001 -0.67500001 -0.43000001 6
4.0900002 -0.70899999 -0.382 6
4.2280002 -0.74000001 -0.32800001 5
4.428 -0.78100002 -0.273 7
4.619 -0.82300001 -0.211 8
3.767 -0.676 -0.47299999 5
3.9130001 -0.70700002 -0.428 5
0 0 0 50
4.2459998 -0.77999997 -0.32800001 6
4.4320002 -0.82099998 -0.271 6
4.6209998 -0.86400002 -0.20900001 7
3.773 -0.70999998 -0.47299999 6
3.902 -0.73900002 -0.426 5
4.0890002 -0.78100002 -0.38 6
4.2350001 -0.815 -0.32600001 6
4.4299998 -0.85900003 -0.27000001 6
4.6240001 -0.90499997 -0.208 7
3.7780001 -0.74400002 -0.47299999 6
3.9100001 -0.77499998 -0.426 5
4.0689998 -0.81199998 -0.377 6
4.237 -0.852 -0.32499999 7
4.4120002 -0.89499998 -0.26699999 6
4.6209998 -0.94499999 -0.206 7
3.7550001 -0.77200001 -0.46900001 4
0 0 0 50
4.092 -0.85299999 -0.37799999 6
4.2360001 -0.88999999 -0.32300001 7
4.4190001 -0.935 -0.266 7
4.632 -0.98900002 -0.205 8
3.77 -0.80800003 -0.47 6
3.927 -0.847 -0.42500001 5
4.0539999 -0.88099998 -0.373 5
4.25 -0.93000001 -0.322 8
4.4159999 -0.97399998 -0.264 5
4.6259999 -1.029 -0.20200001 7
3.7679999 -0.84100002 -0.46799999 5
3.921 -0.88099998 -0.42300001 6
4.059 -0.91799998 -0.37200001 5
4.25 -0.96799999 -0.32100001 8
4.4250002 -1.016 -0.26300001 6
4.6259999 -1.071 -0.2 7
3.7720001 -0.87599999 -0.46799999 5
3.9070001 -0.91299999 -0.421 5
4.0830002 -0.95999998 -0.373 6
4.2420001 -1.005 -0.31900001 7
4.4239998 -1.056 -0.26100001 6
4.6220002 -1.112 -0.198 7
3.77 -0.90899998 -0.46599999 5
3.914 -0.94999999 -0.41999999 6
4.0640001 -0.99199998 -0.37 6
0 0 0 50
4.4219999 -1.095 -0.259 6
4.632 -1.156 -0.19599999 8
3.7780001 -0.94499999 -0.46599999 6
3.9189999 -0.986 -0.419 6
4.086 -1.035 -0.37 7
4.2529998 -1.084 -0.31600001 7
4.4450002 -1.141 -0.25799999 7
4.6279998 -1.197 -0.19400001 7
3.7679999 -0.97600001 -0.46399999 5
3.925 -1.023 -0.41800001 6
4.0630002 -1.0650001 -0.366 6
4.2649999 -1.126 -0.315 7
4.4390001 -1.1799999 -0.255 7
4.6339998 -1.2410001 -0.192 7
3.7679999 -1.01 -0.463 6
3.8929999 -1.05 -0.414 5
4.0819998 -1.107 -0.36700001 7
4.25 -1.16 -0.31200001 6
4.4439998 -1.222 -0.25400001 7
4.6279998 -1.2819999 -0.189 6
3.7720001 -1.046 -0.46200001 6
0 0 0 50
4.0640001 -1.14 -0.36300001 6
4.2470002 -1.198 -0.31 6
4.4359999 -1.26 -0.25099999 7
4.4569998 -1.276 -0.17900001 4
3.776 -1.081 -0.461 6
3.9289999 -1.131 -0.414 6
4.0939999 -1.1849999 -0.36399999 7
4.2459998 -1.237 -0.308 6
3.878 -1.138 -0.21699999 28
3.8529999 -1.138 -0.153 38
3.776 -1.1160001 -0.46000001 6
3.918 -1.164 -0.412 6
4.0760002 -1.2180001 -0.361 6
3.868 -1.163 -0.278 24
3.8310001 -1.16 -0.213 42
3.806 -1.16 -0.149 52
3.78 -1.152 -0.45899999 6
3.918 -1.2 -0.41 6
3.9419999 -1.215 -0.347 7
3.8269999 -1.186 -0.273 32
3.7909999 -1.183 -0.208 45
3.777 -1.187 -0.145 53
3.776 -1.186 -0.45699999 6
0 0 0 50
3.8570001 -1.225 -0.338 21
3.7850001 -1.209 -0.26899999 39
3.756 -1.207 -0.204 51
3.7409999 -1.211 -0.142 60
3.7739999 -1.221 -0.45500001 6
3.927 -1.277 -0.40799999 7
3.809 -1.245 -0.33199999 34
3.753 -1.234 -0.264 50
3.723 -1.232 -0.2 74
3.714 -1.238 -0.138 83
3.776 -1.257 -0.454 7
3.931 -1.3150001 -0.40599999 7
3.7750001 -1.27 -0.32699999 41
3.7279999 -1.262 -0.25999999 60
3.7079999 -1.263 -0.197 90
3.698 -1.268 -0.13500001 99
3.763 -1.288 -0.45100001 6
3.8740001 -1.3329999 -0.39899999 8
3.7509999 -1.298 -0.32300001 45
3.7149999 -1.293 -0.25799999 60
3.6960001 -1.294 -0.19400001 83
0 0 0 50
3.7820001 -1.331 -0.45199999 7
3.8510001 -1.362 -0.39500001 8
3.747 -1.332 -0.32100001 43
3.711 -1.327 -0.255 56
3.6930001 -1.329 -0.192 72
3.6819999 -1.334 -0.13 77
3.78 -1.3660001 -0.44999999 6
3.8659999 -1.404 -0.39399999 7
3.7479999 -1.369 -0.31900001 40
3.7130001 -1.363 -0.25299999 55
3.697 -1.3660001 -0.19 70
3.6919999 -1.373 -0.12800001 76
3.783 -1.404 -0.449 7
3.8959999 -1.452 -0.396 7
3.7550001 -1.4069999 -0.31799999 37
3.7130001 -1.399 -0.25099999 53
3.6930001 -1.4 -0.18799999 64
3.691 -1.408 -0.125 69
3.773 -1.436 -0.44600001 6
3.9119999 -1.495 -0.396 6
3.763 -1.446 -0.31600001 32
3.723 -1.439 -0.25 47
3.7060001 -1.441 -0.186 58
3.7030001 -1.449 -0.123 65
3.783 -1.476 -0.44600001 7
3.9100001 -1.533 -0.39399999 6
3.776 -1.488 -0.31600001 14
0 0 0 50
3.7149999 -1.4809999 -0.184 49
3.7290001 -1.4960001 -0.121 40
3.7720001 -1.5089999 -0.44299999 6
3.911 -1.572 -0.39199999 6
4.0809999 -1.648 -0.33899999 7
3.8280001 -1.554 -0.25299999 6
3.763 -1.5369999 -0.184 8
4.6599998 -1.916 -0.149 6
3.78 -1.549 -0.44299999 7
3.9089999 -1.609 -0.38999999 6
4.0840001 -1.689 -0.33700001 7
4.2680001 -1.774 -0.27900001 7
4.4720001 -1.8710001 -0.21600001 6
4.6789999 -1.97 -0.146 7
3.7550001 -1.575 -0.43799999 6
3.9119999 -1.648 -0.389 6
4.0799999 -1.727 -0.33500001 5
4.2729998 -1.819 -0.27700001 6
4.467 -1.913 -0.213 6
4.6849999 -2.0190001 -0.14300001 7
3.7850001 -1.625 -0.44 7
3.914 -1.687 -0.38699999 6
4.0879998 -1.771 -0.33399999 7
4.2670002 -1.858 -0.27500001 6
4.4710002 -1.9579999 -0.20999999 7
0 0 0 50
3.76 -1.651 -0.43599999 6
3.9159999 -1.727 -0.38600001 6
4.0830002 -1.809 -0.331 5
4.2729998 -1.903 -0.27200001 5
4.4790001 -2.007 -0.208 6
4.6950002 -2.1170001 -0.13699999 8
3.76 -1.688 -0.435 6
3.914 -1.765 -0.384 6
4.0869999 -1.852 -0.33000001 7
4.2810001 -1.95 -0.271 6
4.4819999 -2.053 -0.206 8
4.6950002 -2.164 -0.134 8
3.7479999 -1.72 -0.43200001 5
3.9360001 -1.814 -0.38499999 4
4.0869999 -1.893 -0.32800001 5
4.2820001 -1.993 -0.26800001 7
4.4879999 -2.1010001 -0.20299999 9
4.6989999 -2.214 -0.131 6
3.7550001 -1.761 -0.43099999 5
3.9100001 -1.841 -0.38 6
4.0910001 -1.9349999 -0.32600001 6
0 0 0 50
4.4860001 -2.145 -0.2 7
4.7080002 -2.266 -0.12800001 7
3.7550001 -1.798 -0.43000001 6
3.911 -1.881 -0.37900001 5
4.0929999 -1.978 -0.324 6
4.283 -2.0799999 -0.264 7
4.4889998 -2.1930001 -0.198 5
4.7119999 -2.316 -0.125 9
3.75 -1.834 -0.42899999 6
3.914 -1.9220001 -0.37799999 6
4.0910001 -2.0179999 -0.322 6
4.29 -2.1270001 -0.26199999 5
4.4980001 -2.243 -0.19499999 8
4.7179999 -2.3670001 -0.122 6
3.7509999 -1.872 -0.428 6
3.914 -1.961 -0.37599999 6
4.1090002 -2.0680001 -0.322 5
4.2909999 -2.1700001 -0.25999999 7
4.506 -2.2920001 -0.193 8
0 0 0 50
3.76 -1.915 -0.428 7
3.9200001 -2.0039999 -0.37599999 8
4.1030002 -2.1070001 -0.31999999 7
4.29 -2.214 -0.25799999 8
4.506 -2.339 -0.191 7
4.7350001 -2.4719999 -0.116 7
3.7609999 -1.9529999 -0.42699999 8
3.9130001 -2.0409999 -0.37400001 7
4.1059999 -2.151 -0.31900001 5
4.302 -2.2639999 -0.257 10
4.5120001 -2.388 -0.189 6
4.744 -2.526 -0.114 6
3.7590001 -1.9910001 -0.426 8
3.9170001 -2.0829999 -0.373 7
4.1059999 -2.1919999 -0.317 6
4.3080001 -2.312 -0.255 7
4.513 -2.4349999 -0.186 8
4.7449999 -2.575 -0.111 7
3.7520001 -2.0250001 -0.42399999 7
3.9119999 -2.119 -0.37099999 7
4.099 -2.2309999 -0.315 7
4.2950001 -2.348 -0.25299999 8
4.5159998 -2.4820001 -0.184 6
0 0 0 50
3.7539999 -2.0639999 -0.42399999 7
3.9189999 -2.1630001 -0.37099999 7
4.1040001 -2.2750001 -0.31400001 5
4.3049998 -2.398 -0.252 6
4.5149999 -2.5280001 -0.182 7
4.7389998 -2.6689999 -0.106 8
3.7420001 -2.096 -0.42199999 7
3.915 -2.201 -0.37 7
4.0999999 -2.3150001 -0.31299999 7
4.3049998 -2.4419999 -0.25 6
4.5209999 -2.5780001 -0.18099999 6
4.75 -2.7249999 -0.104 7
3.7550001 -2.142 -0.42300001 8
3.918 -2.243 -0.37 6
4.1040001 -2.359 -0.31200001 7
4.3000002 -2.483 -0.248 6
4.5190001 -2.6229999 -0.17900001 7
4.7480001 -2.7720001 -0.101 7
3.7460001 -2.174 -0.421 7
3.905 -2.2750001 -0.368 6
4.099 -2.3970001 -0.31099999 6
4.303 -2.529 -0.24699999 6
4.52 -2.6700001 -0.177 6
4.744 -2.819 -0.098999999 6
3.7479999 -2.214 -0.421 7
3.9159999 -2.3210001 -0.368 8
4.1040001 -2.4419999 -0.31 6
4.303 -2.572 -0.24600001 6
4.5120001 -2.711 -0.175 6
4.7410002 -2.865 -0.097000003 6
3.74 -2.247 -0.421 7
3.9089999 -2.3570001 -0.36700001 6
4.1009998 -2.4820001 -0.30899999 5
4.3010001 -2.615 -0.245 5
4.5139999 -2.7590001 -0.17399999 5
4.7540002 -2.921 -0.094999999 5
3.7360001 -2.283 -0.41999999 7
3.9089999 -2.3970001 -0.36700001 7
4.0869999 -2.516 -0.308 6
4.2979999 -2.6570001 -0.244 6
4.5110002 -2.803 -0.17200001 6
4.7490001 -2.967 -0.093000002 6
0 0 0 50
3.9059999 -2.434 -0.36700001 5
4.0879998 -2.5569999 -0.30700001 5
4.2919998 -2.6960001 -0.243 6
4.5110002 -2.848 -0.171 5
4.7410002 -3.01 -0.092 5
3.7320001 -2.3559999 -0.41999999 7
3.902 -2.471 -0.366 6
4.0830002 -2.595 -0.30700001 5
4.2849998 -2.7349999 -0.242 5
4.5019999 -2.888 -0.17 5
4.7189999 -3.043 -0.090000004 5
3.7249999 -2.3889999 -0.41999999 6
3.895 -2.5050001 -0.366 7
4.0749998 -2.6300001 -0.30599999 5
4.2729998 -2.7690001 -0.241 6
4.4850001 -2.921 -0.169 5
4.7129998 -3.086 -0.089000002 5
3.724 -2.425 -0.421 7
3.905 -2.55 -0.36700001 5
4.0689998 -2.6659999 -0.30599999 6
4.263 -2.806 -0.23999999 5
4.487 -2.9660001 -0.168 5
4.711 -3.131 -0.086999997 5
3.721 -2.46 -0.421 8
3.888 -2.5780001 -0.366 7
4.0650001 -2.704 -0.30599999 6
4.2690001 -2.8510001 -0.23999999 5
4.4720001 -3 -0.167 5
0 0 0 50
3.714 -2.4909999 -0.421 7
3.878 -2.609 -0.366 5
4.0640001 -2.743 -0.30599999 5
4.263 -2.8889999 -0.23999999 6
4.4759998 -3.0469999 -0.167 4
4.7210002 -3.23 -0.086000003 6
3.71 -2.5250001 -0.42199999 7
3.8859999 -2.651 -0.36700001 5
4.0560002 -2.777 -0.30599999 5
4.257 -2.925 -0.23999999 6
4.4710002 -3.086 -0.167 5
4.7090001 -3.267 -0.086000003 6
3.7030001 -2.556 -0.42199999 8
3.881 -2.6849999 -0.368 6
4.0570002 -2.816 -0.30700001 6
4.2529998 -2.9630001 -0.23999999 6
4.4629998 -3.1229999 -0.16599999 6
4.7020001 -3.3069999 -0.086000003 6
3.7060001 -2.5929999 -0.42399999 9
3.869 -2.714 -0.368 6
4.0510001 -2.8499999 -0.30700001 6
4.25 -3 -0.241 6
4.4590001 -3.161 -0.167 5
4.7020001 -3.349 -0.086000003 5
3.6949999 -2.6199999 -0.42399999 8
3.862 -2.744 -0.36899999 6
4.0380001 -2.8770001 -0.30700001 6
4.244 -3.0350001 -0.241 6
0 0 0 50
4.6919999 -3.385 -0.086000003 6
3.6860001 -2.6470001 -0.42500001 8
3.855 -2.7739999 -0.36899999 6
4.039 -2.914 -0.30899999 6
4.2259998 -3.0599999 -0.241 5
4.447 -3.233 -0.168 5
4.6849999 -3.421 -0.086000003 6
3.6800001 -2.6760001 -0.426 7
3.852 -2.806 -0.37099999 7
4.033 -2.9449999 -0.31 6
4.2259998 -3.096 -0.242 6
4.4390001 -3.2650001 -0.169 6
4.6739998 -3.454 -0.086999997 5
3.6670001 -2.698 -0.426 7
3.8410001 -2.8310001 -0.37200001 6
4.02 -2.971 -0.31 5
4.2160001 -3.125 -0.243 5
4.4330001 -3.299 -0.169 5
4.6700001 -3.4909999 -0.086999997 5
3.665 -2.7290001 -0.428 6
3.8340001 -2.859 -0.373 5
4.006 -2.9949999 -0.31099999 6
0 0 0 50
4.4219999 -3.3280001 -0.171 6
4.6620002 -3.523 -0.088 5
3.6570001 -2.753 -0.43000001 7
3.8269999 -2.8859999 -0.37400001 6
4.006 -3.0280001 -0.31299999 6
4.2020001 -3.1849999 -0.24600001 5
4.4180002 -3.3599999 -0.17200001 6
4.6500001 -3.5510001 -0.090000004 5
3.654 -2.7809999 -0.43200001 7
3.823 -2.9130001 -0.37599999 5
3.9960001 -3.052 -0.31400001 6
4.1950002 -3.2119999 -0.24699999 5
4.4070001 -3.3859999 -0.17299999 5
4.645 -3.582 -0.090999998 5
3.6400001 -2.799 -0.433 6
3.812 -2.9349999 -0.37799999 6
3.9860001 -3.075 -0.31600001 6
4.184 -3.2360001 -0.249 5
4.3979998 -3.4119999 -0.175 5
4.6399999 -3.6129999 -0.093000002 5
3.6429999 -2.829 -0.43599999 6
3.8010001 -2.9549999 -0.37900001 6
3.9809999 -3.0999999 -0.31799999 5
4.1729999 -3.257 -0.25099999 5
4.3899999 -3.437 -0.177 5
0 0 0 50
3.6229999 -2.8399999 -0.43599999 8
3.793 -2.9760001 -0.38100001 5
3.97 -3.1199999 -0.31900001 6
4.1599998 -3.276 -0.252 4
4.3800001 -3.4590001 -0.17900001 5
4.6149998 -3.6570001 -0.097000003 5
3.615 -2.8599999 -0.43799999 6
3.783 -2.994 -0.38299999 5
3.9649999 -3.142 -0.322 5
4.1529999 -3.2980001 -0.25400001 5
4.3759999 -3.484 -0.18099999 5
4.6079998 -3.681 -0.098999999 5
3.6129999 -2.8829999 -0.44100001 5
3.773 -3.0109999 -0.384 6
3.951 -3.1570001 -0.324 6
4.1440001 -3.3169999 -0.25600001 5
4.3610001 -3.4990001 -0.183 6
4.598 -3.701 -0.101 5
3.6010001 -2.8959999 -0.44299999 8
3.763 -3.027 -0.38600001 5
3.9449999 -3.1760001 -0.32600001 5
4.1370001 -3.336 -0.259 5
4.3509998 -3.517 -0.185 5
4.5809999 -3.714 -0.104 4
3.595 -2.9130001 -0.44499999 5
0 0 0 50
3.9319999 -3.1889999 -0.32800001 5
4.1240001 -3.348 -0.26100001 5
4.3400002 -3.5309999 -0.18799999 5
4.579 -3.7360001 -0.106 4
3.595 -2.9330001 -0.44800001 5
3.747 -3.056 -0.391 5
3.924 -3.2030001 -0.33000001 5
4.1160002 -3.3629999 -0.26300001 5
4.3280001 -3.543 -0.19 5
4.5599999 -3.7420001 -0.109 5
3.576 -2.9360001 -0.449 6
3.737 -3.0669999 -0.39300001 5
3.9130001 -3.2130001 -0.33199999 6
4.1079998 -3.375 -0.266 5
4.3189998 -3.5550001 -0.193 6
4.552 -3.756 -0.112 6
3.5569999 -2.938 -0.44999999 7
3.73 -3.079 -0.39500001 6
3.9030001 -3.2219999 -0.33500001 5
0 0 0 50
4.3099999 -3.566 -0.19599999 7
4.539 -3.763 -0.115 5
3.5610001 -2.957 -0.45300001 6
3.727 -3.092 -0.39899999 6
3.895 -3.2309999 -0.33700001 5
4.0890002 -3.3929999 -0.271 6
4.2969999 -3.5699999 -0.198 6
4.5300002 -3.7709999 -0.118 4
3.5510001 -2.9630001 -0.456 7
3.7119999 -3.0929999 -0.40000001 5
3.888 -3.2390001 -0.34 6
4.0799999 -3.4000001 -0.27399999 5
4.29 -3.579 -0.20100001 5
4.52 -3.777 -0.12 4
3.546 -2.971 -0.458 6
3.7049999 -3.0999999 -0.40200001 5
3.882 -3.2460001 -0.34200001 5
4.0780001 -3.4100001 -0.27700001 6
4.2740002 -3.5769999 -0.204 5
4.5120001 -3.7809999 -0.124 4
3.5280001 -2.967 -0.45899999 8
3.694 -3.1010001 -0.405 6
3.8670001 -3.244 -0.34400001 6
4.0609999 -3.4059999 -0.27900001 5
4.2680001 -3.5810001 -0.206 5
0 0 0 50
3.529 -2.9760001 -0.46200001 6
3.684 -3.102 -0.40700001 6
3.8599999 -3.2460001 -0.347 6
4.052 -3.4070001 -0.28200001 5
4.2579999 -3.5810001 -0.20900001 5
4.494 -3.783 -0.13 5
3.513 -2.97 -0.463 8
3.6789999 -3.1040001 -0.40900001 6
3.852 -3.2460001 -0.34900001 6
4.0450001 -3.4070001 -0.28400001 5
4.2519999 -3.5810001 -0.213 5
4.4780002 -3.7739999 -0.133 6
3.516 -2.9779999 -0.46700001 6
3.677 -3.1070001 -0.412 6
3.8469999 -3.2460001 -0.352 6
0 0 0 50
4.2480001 -3.5810001 -0.215 5
4.473 -3.773 -0.13600001 5
3.5039999 -2.9719999 -0.46799999 6
3.6700001 -3.105 -0.414 6
3.8380001 -3.2409999 -0.354 6
4.0289998 -3.3989999 -0.289 5
4.2389998 -3.5739999 -0.21799999 5
4.4619999 -3.763 -0.139 6
3.494 -2.9660001 -0.46900001 7
3.6600001 -3.098 -0.41600001 6
3.835 -3.2390001 -0.35699999 5
4.0149999 -3.3870001 -0.29100001 5
4.2340002 -3.569 -0.221 5
4.4549999 -3.7550001 -0.142 6
3.4909999 -2.9630001 -0.472 6
3.6530001 -3.0910001 -0.41800001 6
3.825 -3.23 -0.35800001 5
0 0 0 50
4.2199998 -3.5539999 -0.223 5
4.447 -3.7449999 -0.145 6
3.4879999 -2.9590001 -0.47400001 7
3.6459999 -3.0829999 -0.419 6
3.816 -3.2190001 -0.36000001 5
4.0029998 -3.3699999 -0.296 5
4.2150002 -3.5450001 -0.226 5
4.4390001 -3.7309999 -0.148 5
3.4909999 -2.9579999 -0.47600001 6
3.6500001 -3.082 -0.42199999 7
3.8169999 -3.214 -0.36300001 5
3.9990001 -3.3610001 -0.29800001 5
4.2119999 -3.5350001 -0.228 6
4.4369998 -3.721 -0.15099999 6
3.48 -2.944 -0.477 6
3.6400001 -3.0680001 -0.42300001 7
3.8110001 -3.2019999 -0.36500001 6
3.994 -3.348 -0.30000001 5
4.2059999 -3.5209999 -0.23100001 5
4.428 -3.7030001 -0.153 7
3.4760001 -2.9330001 -0.479 6
3.6300001 -3.0510001 -0.42399999 6
3.8050001 -3.188 -0.366 5
0 0 0 50
4.1929998 -3.4979999 -0.23199999 6
4.4159999 -3.6800001 -0.155 6
3.477 -2.925 -0.48100001 6
3.632 -3.043 -0.426 6
3.8010001 -3.174 -0.368 6
3.984 -3.3180001 -0.30399999 6
4.1939998 -3.4860001 -0.235 6
4.414 -3.664 -0.15800001 6
3.471 -2.9100001 -0.48100001 6
3.6329999 -3.0320001 -0.428 6
3.799 -3.1600001 -0.36899999 6
3.9820001 -3.302 -0.30599999 6
4.1939998 -3.471 -0.237 6
4.4120002 -3.645 -0.16 6
3.4719999 -2.8989999 -0.48300001 6
3.6270001 -3.0150001 -0.42899999 6
3.7969999 -3.1440001 -0.37099999 6
3.9760001 -3.2820001 -0.30700001 5
4.1890001 -3.4489999 -0.23899999 6
4.4120002 -3.6270001 -0.163 5
3.467 -2.881 -0.48300001 6
3.6300001 -3.0020001 -0.43099999 6
3.8 -3.1300001 -0.373 5
3.9790001 -3.2679999 -0.30899999 5
4.184 -3.4260001 -0.23999999 5
4.4039998 -3.5999999 -0.164 6
0 0 0 50
3.6210001 -2.9790001 -0.43099999 6
3.7950001 -3.109 -0.373 5
3.9779999 -3.247 -0.31 5
4.1820002 -3.404 -0.241 5
4.4070001 -3.579 -0.16599999 5
3.471 -2.8529999 -0.486 6
3.6289999 -2.967 -0.433 6
3.7920001 -3.0869999 -0.37400001 5
3.9820001 -3.23 -0.31200001 5
4.1900001 -3.388 -0.243 5
4.4029999 -3.552 -0.167 6
3.4690001 -2.8329999 -0.486 6
3.6240001 -2.944 -0.43200001 6
3.7939999 -3.0680001 -0.375 6
3.9790001 -3.2049999 -0.31200001 5
4.1820002 -3.3570001 -0.244 5
4.4039998 -3.527 -0.169 5
3.4760001 -2.819 -0.48699999 6
3.6240001 -2.9230001 -0.433 7
3.8 -3.05 -0.37599999 6
3.9849999 -3.1860001 -0.31400001 6
4.1859999 -3.336 -0.245 5
4.4099998 -3.5039999 -0.17 6
3.4579999 -2.7839999 -0.484 6
3.631 -2.9070001 -0.43399999 6
3.8039999 -3.03 -0.377 5
3.9790001 -3.1559999 -0.31400001 5
4.1830001 -3.3069999 -0.24600001 5
0 0 0 50
3.474 -2.7750001 -0.486 6
3.6270001 -2.8800001 -0.433 6
3.799 -3.0020001 -0.37599999 5
3.9849999 -3.1340001 -0.31400001 6
4.1869998 -3.2809999 -0.24600001 5
4.402 -3.4389999 -0.171 6
3.4820001 -2.7579999 -0.48699999 6
3.635 -2.862 -0.43399999 6
3.8050001 -2.98 -0.377 6
3.9890001 -3.1099999 -0.31400001 5
4.1849999 -3.25 -0.24600001 5
4.4050002 -3.4100001 -0.17200001 6
3.474 -2.727 -0.48500001 7
3.6359999 -2.8369999 -0.433 6
3.8080001 -2.9549999 -0.377 6
3.9920001 -3.0840001 -0.315 6
4.1950002 -3.227 -0.24699999 5
4.4120002 -3.3829999 -0.17200001 6
3.4749999 -2.7019999 -0.484 8
3.638 -2.8110001 -0.433 6
3.8099999 -2.927 -0.37599999 6
3.99 -3.0510001 -0.31400001 5
4.1989999 -3.197 -0.24699999 5
4.4180002 -3.352 -0.17299999 6
3.4820001 -2.6800001 -0.484 9
3.6530001 -2.7950001 -0.433 6
3.8180001 -2.904 -0.37599999 6
3.9990001 -3.027 -0.31400001 6
4.2049999 -3.1689999 -0.24699999 6
4.4169998 -3.3169999 -0.17200001 6
3.49 -2.6300001 -0.48199999 8
3.651 -2.734 -0.43000001 8
3.826 -2.848 -0.37400001 5
4.0180001 -2.9749999 -0.31299999 6
4.2140002 -3.1070001 -0.24600001 6
4.4359999 -3.2579999 -0.17200001 6
3.4960001 -2.605 -0.48100001 7
3.668 -2.7160001 -0.43099999 6
3.839 -2.825 -0.37400001 6
4.0209999 -2.944 -0.31200001 6
4.2140002 -3.0710001 -0.244 6
4.448 -3.2279999 -0.17200001 6
3.5039999 -2.5810001 -0.47999999 8
3.661 -2.678 -0.428 7
3.8429999 -2.7950001 -0.373 6
4.0279999 -2.9130001 -0.31099999 6
4.2309999 -3.0450001 -0.244 6
4.4520001 -3.191 -0.17 6
3.529 -2.5680001 -0.48100001 5
3.681 -2.6600001 -0.428 6
3.8529999 -2.767 -0.37200001 6
4.0370002 -2.8829999 -0.31 6
0 0 0 50
4.46 -3.1559999 -0.169 6
3.5190001 -2.5280001 -0.477 8
3.678 -2.6240001 -0.42500001 7
3.8570001 -2.7349999 -0.37 6
4.052 -2.8570001 -0.30899999 6
4.2480001 -2.9809999 -0.241 6
4.4640002 -3.119 -0.168 6
3.529 -2.503 -0.47600001 8
3.694 -2.602 -0.42500001 10
3.8729999 -2.711 -0.36899999 6
4.0549998 -2.822 -0.30700001 6
4.2550001 -2.9460001 -0.23999999 7
4.4749999 -3.085 -0.167 6
3.5450001 -2.4809999 -0.47499999 8
3.704 -2.575 -0.42300001 7
3.8789999 -2.6789999 -0.36700001 5
