# .PCD v0.7 - Point Cloud Data file format
VERSION 0.7
FIELDS x y z intensity
SIZE 4 4 4 4
TYPE F F F F
COUNT 1 1 1 1
WIDTH 1662
HEIGHT 1
VIEWPOINT 0 0 0 1 0 0 0
POINTS 1662
DATA ascii
5.2270002 3.059 -0.214 1
5.5139999 3.223 -0.126 1
5.8369999 3.408 -0.027000001 1
6.2179999 3.6300001 0.082999997 9
6.2329998 3.6400001 0.197 24
0 0 0 50
5.1570001 2.9649999 -0.214 3
5.5910001 3.21 -0.131 1
5.9380002 3.4059999 -0.030999999 2
6.224 3.569 0.079000004 2
6.2779999 3.5999999 0.193 15
6.2820001 3.605 0.30700001 92
5.1389999 2.902 -0.21600001 4
5.5479999 3.128 -0.133 1
5.96 3.358 -0.035 2
6.1880002 3.484 0.074000001 2
6.3429999 3.572 0.19 17
6.3400002 3.572 0.30399999 92
5.1149998 2.836 -0.21699999 4
0 0 0 50
5.9320002 3.2809999 -0.039000001 3
6.1680002 3.4089999 0.068999998 2
6.4050002 3.54 0.186 15
6.4120002 3.546 0.30199999 100
5.1069999 2.779 -0.22 4
5.4559999 2.9649999 -0.138 1
5.8889999 3.1960001 -0.043000001 3
6.145 3.3329999 0.064000003 1
6.4679999 3.5079999 0.182 16
6.473 3.5120001 0.29800001 48
5.0700002 2.707 -0.221 6
5.3990002 2.8770001 -0.139 1
5.8520002 3.1159999 -0.046999998 3
6.2020001 3.299 0.059 2
6.52 3.467 0.178 9
0 0 0 50
5.0799999 2.6600001 -0.22400001 4
5.3670001 2.8050001 -0.142 1
5.823 3.039 -0.050999999 1
6.2579999 3.2639999 0.054000001 3
6.4860001 3.382 0.171 1
6.5819998 3.4330001 0.28999999 16
5.0560002 2.596 -0.227 3
5.3439999 2.7379999 -0.145 3
5.7649999 2.95 -0.055 1
6.2080002 3.174 0.048999999 2
6.4699998 3.3069999 0.16500001 2
6.6560001 3.4030001 0.287 13
5.046 2.539 -0.229 3
0 0 0 50
5.7049999 2.8610001 -0.059 1
6.2129998 3.1129999 0.044 3
6.448 3.2279999 0.15800001 1
6.73 3.3699999 0.28299999 13
5.0279999 2.4790001 -0.23100001 3
5.2989998 2.6070001 -0.15099999 3
5.6440001 2.773 -0.063000001 1
6.2280002 3.0569999 0.037999999 3
6.4289999 3.154 0.152 1
6.7969999 3.3340001 0.27900001 12
5.0139999 2.4219999 -0.234 4
5.2719998 2.5409999 -0.154 3
5.612 2.701 -0.067000002 1
0 0 0 50
6.5110002 3.128 0.148 3
6.8390002 3.2850001 0.27399999 6
4.9980001 2.3640001 -0.236 4
5.2579999 2.4820001 -0.15800001 3
5.5890002 2.6329999 -0.071000002 1
6.0440001 2.8440001 0.027000001 2
6.5159998 3.0639999 0.142 3
6.7670002 3.181 0.26499999 2
4.98 2.306 -0.23899999 4
5.2350001 2.418 -0.16 3
5.5549998 2.5610001 -0.075000003 1
0 0 0 50
6.4920001 2.987 0.13600001 3
6.7509999 3.105 0.257 2
4.9629998 2.2479999 -0.241 4
5.2220001 2.3599999 -0.164 4
5.527 2.493 -0.079000004 1
5.895 2.655 0.016000001 1
6.4749999 2.9130001 0.12899999 3
6.7589998 3.04 0.25099999 2
4.9489999 2.1930001 -0.243 4
5.2049999 2.3 -0.167 4
5.5050001 2.428 -0.082000002 3
5.8449998 2.5739999 0.011 1
6.4549999 2.8399999 0.123 3
6.8239999 3 0.24600001 3
4.9310002 2.1359999 -0.24600001 4
5.184 2.2390001 -0.17 4
0 0 0 50
5.8239999 2.507 0.0070000002 1
6.3720002 2.74 0.115 2
6.842 2.9389999 0.241 3
4.914 2.0799999 -0.248 4
5.1690001 2.1819999 -0.17299999 4
5.4559999 2.299 -0.090000004 3
5.777 2.4289999 0.0020000001 3
6.2870002 2.6400001 0.108 2
6.8429999 2.8710001 0.234 3
4.8969998 2.0250001 -0.25 4
5.1459999 2.122 -0.176 4
5.4349999 2.2360001 -0.093999997 4
5.7610002 2.3659999 -0.0020000001 3
6.165 2.5280001 0.101 2
0 0 0 50
4.8839998 1.973 -0.25299999 3
5.1290002 2.066 -0.17900001 4
5.4070001 2.1730001 -0.097000003 4
5.724 2.2950001 -0.0070000002 4
6.1030002 2.4430001 0.094999999 1
6.7620001 2.704 0.21799999 3
4.875 1.9220001 -0.255 4
5.1129999 2.0090001 -0.182 4
5.3940001 2.1140001 -0.101 5
5.711 2.234 -0.011 3
6.0580001 2.3659999 0.088 1
6.6529999 2.595 0.20900001 3
4.849 1.865 -0.257 4
5.098 1.955 -0.185 4
5.3709998 2.0539999 -0.105 5
5.6869998 2.1689999 -0.016000001 4
6.0250001 2.2939999 0.082999997 1
6.5159998 2.477 0.198 2
4.8390002 1.814 -0.259 4
5.0799999 1.899 -0.18700001 4
0 0 0 50
5.664 2.1059999 -0.02 4
5.9920001 2.223 0.078000002 2
6.4000001 2.3710001 0.189 1
4.8280001 1.7640001 -0.26199999 4
5.066 1.845 -0.19 4
5.329 1.9349999 -0.111 5
5.6409998 2.043 -0.024 4
5.9650002 2.1559999 0.071999997 3
6.3439999 2.289 0.182 2
4.8119998 1.7130001 -0.264 4
5.0500002 1.791 -0.193 5
5.3169999 1.88 -0.115 4
5.6199999 1.982 -0.028000001 4
5.9400001 2.0899999 0.067000002 3
6.3039999 2.214 0.176 1
4.8010001 1.664 -0.266 4
5.0279999 1.7359999 -0.19499999 5
0 0 0 50
5.586 1.9170001 -0.032000002 4
5.9190001 2.026 0.061999999 3
6.283 2.1459999 0.17 1
4.7870002 1.614 -0.26800001 4
5.02 1.686 -0.198 4
5.2839999 1.768 -0.121 3
5.5760002 1.8609999 -0.035999998 3
5.8959999 1.962 0.057999998 3
6.2540002 2.0769999 0.164 1
4.7750001 1.5650001 -0.27000001 4
5.0050001 1.6339999 -0.2 3
5.2509999 1.7079999 -0.124 4
5.546 1.799 -0.039999999 3
5.8709998 1.899 0.052999999 4
6.2199998 2.007 0.15800001 1
4.7579999 1.516 -0.271 3
4.9879999 1.582 -0.20200001 4
5.243 1.6569999 -0.127 4
5.533 1.743 -0.043000001 4
5.8499999 1.837 0.048999999 4
6.198 1.941 0.153 3
4.7459998 1.4680001 -0.273 3
4.973 1.531 -0.205 4
0 0 0 50
5.5100002 1.6849999 -0.046999998 4
5.8260002 1.775 0.044 4
6.164 1.873 0.147 2
4.7329998 1.421 -0.27500001 3
4.9569998 1.4809999 -0.207 3
5.2129998 1.551 -0.132 4
5.4949999 1.6289999 -0.050000001 4
5.8000002 1.714 0.039999999 3
6.1430001 1.8099999 0.142 4
4.7259998 1.376 -0.27700001 4
4.9419999 1.432 -0.20900001 4
5.1960001 1.499 -0.13500001 4
5.4619999 1.5700001 -0.052999999 4
5.7789998 1.655 0.035999998 4
6.1230001 1.748 0.138 4
4.711 1.329 -0.278 4
4.9299998 1.3839999 -0.211 4
5.1859999 1.449 -0.138 3
0 0 0 50
5.7690001 1.6 0.033 4
6.0910001 1.683 0.133 4
4.6950002 1.283 -0.27900001 3
4.9219999 1.3380001 -0.213 4
5.1690001 1.398 -0.14 4
5.4369998 1.464 -0.059 4
5.7490001 1.5420001 0.028999999 4
6.0799999 1.625 0.12899999 4
4.6849999 1.238 -0.28099999 4
4.9039998 1.289 -0.214 4
5.1500001 1.347 -0.142 3
5.421 1.411 -0.061999999 4
5.7249999 1.484 0.026000001 4
6.0630002 1.566 0.125 3
4.6760001 1.194 -0.28200001 5
4.8930001 1.243 -0.21600001 4
5.1339998 1.2970001 -0.14399999 4
5.4099998 1.36 -0.064999998 4
5.7030001 1.427 0.022 4
6.0359998 1.5039999 0.121 4
4.6690001 1.151 -0.28400001 4
4.882 1.197 -0.21799999 4
5.1220002 1.248 -0.146 4
5.3930001 1.308 -0.067000002 4
0 0 0 50
6.0149999 1.4450001 0.117 4
4.6550002 1.107 -0.28400001 4
4.869 1.15 -0.219 4
5.1079998 1.2 -0.148 4
5.3769999 1.256 -0.068999998 5
5.6669998 1.317 0.017000001 4
5.9970002 1.387 0.113 4
4.6459999 1.063 -0.28600001 5
4.8600001 1.1059999 -0.221 5
5.0949998 1.152 -0.15000001 4
5.362 1.205 -0.071999997 5
5.6529999 1.2640001 0.014 4
5.9790001 1.33 0.11 5
4.6329999 1.02 -0.28600001 4
0 0 0 50
5.0900002 1.1059999 -0.152 5
5.348 1.155 -0.074000001 5
5.638 1.211 0.011 4
5.9689999 1.275 0.107 5
4.625 0.97799999 -0.287 5
4.8379998 1.016 -0.223 5
5.0770001 1.059 -0.153 4
5.335 1.1059999 -0.075999998 5
5.625 1.16 0.0089999996 4
5.9559999 1.221 0.104 5
4.6149998 0.93699998 -0.28799999 5
4.8249998 0.972 -0.22400001 5
0 0 0 50
5.329 1.058 -0.078000002 4
5.6030002 1.1059999 0.0070000002 4
5.9349999 1.164 0.101 5
4.612 0.89600003 -0.289 6
4.8189998 0.92900002 -0.22499999 4
5.0500002 0.96600002 -0.156 4
5.3130002 1.0089999 -0.079000004 4
5.5949998 1.056 0.0040000002 4
5.921 1.11 0.098999999 4
4.5970001 0.85399997 -0.28999999 6
4.8080001 0.88599998 -0.226 5
5.0380001 0.921 -0.15700001 5
5.2930002 0.95999998 -0.081 4
0 0 0 50
5.8959999 1.054 0.096000001 4
4.5910001 0.81400001 -0.28999999 5
4.803 0.84399998 -0.227 6
5.0289998 0.87599999 -0.15800001 4
5.2859998 0.91399997 -0.082000002 4
5.5630002 0.954 0.001 5
5.8839998 1.002 0.093999997 4
4.586 0.77399999 -0.29100001 6
4.7919998 0.80199999 -0.228 5
5.0180001 0.83200002 -0.15899999 4
5.27 0.86699998 -0.082999997 4
0 0 0 50
5.8649998 0.949 0.092 5
4.5700002 0.73299998 -0.29100001 4
4.789 0.76099998 -0.229 4
5.006 0.78799999 -0.16 4
5.2659998 0.82099998 -0.085000001 3
5.5430002 0.85699999 -0.0020000001 4
5.8460002 0.89600003 0.090000004 4
4.586 0.69800001 -0.29300001 6
4.7779999 0.71899998 -0.229 5
5.0029998 0.74599999 -0.161 4
5.2610002 0.77700001 -0.086000003 4
0 0 0 50
5.8379998 0.84500003 0.088 4
4.572 0.65799999 -0.29300001 6
4.7709999 0.67900002 -0.23 6
5.0019999 0.704 -0.162 5
5.2540002 0.73199999 -0.086999997 4
5.5149999 0.75999999 -0.0040000002 4
5.8200002 0.79400003 0.086000003 4
4.559 0.61799997 -0.29300001 5
4.757 0.63700002 -0.23 4
4.9920001 0.66100001 -0.162 4
5.2329998 0.685 -0.086999997 3
5.5019999 0.713 -0.0049999999 5
5.8039999 0.74400002 0.085000001 5
0 0 0 50
4.7600002 0.59899998 -0.23100001 6
4.9809999 0.61900002 -0.163 4
5.2309999 0.64200002 -0.088 4
5.4959998 0.667 -0.0060000001 4
5.7979999 0.69499999 0.083999999 5
4.553 0.54299998 -0.29300001 5
4.7529998 0.55900002 -0.23100001 5
0 0 0 50
5.2249999 0.59799999 -0.089000002 4
5.4879999 0.62099999 -0.0070000002 5
5.7909999 0.64600003 0.082999997 4
4.5320001 0.50400001 -0.292 5
4.7480001 0.51999998 -0.23100001 5
4.974 0.537 -0.164 5
5.2179999 0.55500001 -0.090000004 4
5.4850001 0.57599998 -0.0080000004 4
5.7810001 0.59799999 0.082000002 5
4.5370002 0.46799999 -0.29300001 4
4.7410002 0.48100001 -0.23100001 5
0 0 0 50
5.2119999 0.51300001 -0.090000004 4
5.4689999 0.52999997 -0.0080000004 4
5.77 0.55000001 0.081 5
4.5240002 0.43000001 -0.29300001 5
4.7379999 0.44299999 -0.23199999 3
4.961 0.456 -0.164 4
5.2010002 0.47 -0.090000004 4
5.4629998 0.48500001 -0.0089999996 4
5.7589998 0.50300002 0.079999998 4
4.5159998 0.39300001 -0.292 5
0 0 0 50
4.9419999 0.414 -0.164 4
5.1939998 0.42699999 -0.090000004 4
5.454 0.44 -0.0089999996 4
5.7579999 0.456 0.079999998 4
4.526 0.359 -0.29300001 3
4.7259998 0.36700001 -0.23100001 3
4.9460001 0.37599999 -0.164 4
5.191 0.38600001 -0.090999998 4
5.4569998 0.398 -0.0089999996 5
5.75 0.41 0.079000004 5
4.507 0.32100001 -0.292 5
0 0 0 50
4.9250002 0.33500001 -0.164 4
5.1820002 0.34400001 -0.090999998 4
5.4460001 0.354 -0.0099999998 5
5.737 0.36399999 0.079000004 5
4.5139999 0.287 -0.292 5
4.7129998 0.29100001 -0.23100001 4
4.9330001 0.29699999 -0.164 4
5.1719999 0.303 -0.090000004 4
5.4349999 0.31 -0.0099999998 4
5.7340002 0.317 0.079000004 5
0 0 0 50
4.71 0.25400001 -0.23100001 4
4.9349999 0.25799999 -0.164 4
5.177 0.26199999 -0.090999998 4
5.4359999 0.26699999 -0.0099999998 5
5.7280002 0.27200001 0.079000004 5
4.494 0.215 -0.29100001 5
4.7080002 0.21699999 -0.23100001 4
4.9200001 0.219 -0.163 4
0 0 0 50
5.4239998 0.22400001 -0.0099999998 4
5.7249999 0.227 0.079000004 5
4.493 0.18000001 -0.29100001 5
4.6939998 0.18000001 -0.23 4
4.921 0.18099999 -0.164 4
5.1550002 0.18099999 -0.090000004 4
5.4250002 0.182 -0.0099999998 5
5.717 0.182 0.079000004 5
4.4899998 0.145 -0.29100001 5
4.6900001 0.14399999 -0.229 5
4.914 0.14300001 -0.163 5
5.145 0.141 -0.090000004 4
0 0 0 50
5.7069998 0.138 0.079000004 5
4.4829998 0.111 -0.28999999 5
4.6890001 0.108 -0.229 5
4.9099998 0.105 -0.163 5
5.1479998 0.102 -0.090000004 5
5.4169998 0.098999999 -0.0089999996 4
5.7059999 0.093999997 0.079000004 6
4.474 0.077 -0.289 4
4.6820002 0.072999999 -0.229 5
4.902 0.068000004 -0.162 4
5.1459999 0.063000001 -0.089000002 4
5.4190001 0.057 -0.0089999996 5
0 0 0 50
4.4689999 0.043000001 -0.289 4
4.6919999 0.037 -0.229 4
4.9029999 0.030999999 -0.162 5
5.1469998 0.024 -0.089000002 4
5.4310002 0.016000001 -0.0080000004 5
5.7129998 0.0060000001 0.079999998 6
4.4660001 0.0089999996 -0.28799999 5
4.6820002 0.0020000001 -0.228 4
4.8979998 -0.0049999999 -0.161 6
0 0 0 50
5.4200001 -0.024 -0.0080000004 6
5.7090001 -0.035 0.079999998 6
4.4679999 -0.023 -0.28799999 4
4.6830001 -0.032000002 -0.228 4
4.9029999 -0.041999999 -0.161 5
5.1539998 -0.052999999 -0.088 5
5.4219999 -0.064999998 -0.0080000004 5
5.698 -0.078000002 0.081 6
4.4549999 -0.056000002 -0.287 4
4.6719999 -0.067000002 -0.227 5
4.902 -0.078000002 -0.161 4
5.158 -0.090999998 -0.088 5
5.421 -0.105 -0.0070000002 5
0 0 0 50
4.461 -0.089000002 -0.287 5
4.6630001 -0.101 -0.226 5
4.895 -0.114 -0.16 4
5.145 -0.12899999 -0.088 5
5.414 -0.145 -0.0070000002 5
5.6989999 -0.162 0.082000002 6
4.4590001 -0.121 -0.287 6
4.6620002 -0.13500001 -0.226 5
4.8899999 -0.15000001 -0.16 4
5.145 -0.16599999 -0.086999997 4
5.4070001 -0.184 -0.0060000001 5
0 0 0 50
4.4629998 -0.154 -0.287 6
4.6570001 -0.168 -0.226 6
4.8959999 -0.185 -0.16 4
5.1409998 -0.20299999 -0.086999997 5
5.4000001 -0.223 -0.0060000001 5
5.6880002 -0.245 0.082000002 6
4.4629998 -0.186 -0.287 6
4.652 -0.20100001 -0.22499999 5
4.8870001 -0.22 -0.15899999 4
5.1360002 -0.23999999 -0.086000003 5
5.3990002 -0.26199999 -0.0049999999 5
0 0 0 50
4.4530001 -0.21699999 -0.28600001 6
4.652 -0.235 -0.22499999 5
4.8720002 -0.25400001 -0.15800001 4
5.112 -0.27599999 -0.085000001 5
5.3779998 -0.29899999 -0.0049999999 5
5.6620002 -0.32499999 0.082999997 6
4.441 -0.248 -0.285 4
4.6420002 -0.26699999 -0.22400001 5
4.8639998 -0.28799999 -0.15800001 5
5.1009998 -0.31200001 -0.085000001 5
5.3610001 -0.33700001 -0.0049999999 5
5.6430001 -0.36399999 0.082999997 5
0 0 0 50
4.6459999 -0.30000001 -0.22400001 5
4.8639998 -0.32300001 -0.15800001 4
5.098 -0.347 -0.085000001 5
5.3610001 -0.37400001 -0.0040000002 5
5.645 -0.40400001 0.083999999 5
4.448 -0.31099999 -0.285 5
4.6420002 -0.333 -0.22400001 6
4.8629999 -0.35699999 -0.15700001 4
5.0910001 -0.382 -0.083999999 4
5.3569999 -0.41100001 -0.0040000002 4
5.6399999 -0.44299999 0.083999999 5
4.4419999 -0.34200001 -0.285 6
4.6459999 -0.36500001 -0.22400001 4
4.8639998 -0.38999999 -0.15700001 4
5.0939999 -0.417 -0.083999999 4
5.3569999 -0.44800001 -0.0040000002 5
5.6420002 -0.48300001 0.083999999 5
4.4429998 -0.37200001 -0.285 6
4.6389999 -0.39700001 -0.223 4
4.8610001 -0.42399999 -0.15700001 4
5.092 -0.45300001 -0.083999999 4
5.355 -0.48500001 -0.003 5
0 0 0 50
4.4679999 -0.405 -0.28600001 7
4.631 -0.42699999 -0.223 4
4.8559999 -0.456 -0.15700001 4
5.0869999 -0.48699999 -0.083999999 5
5.335 -0.51999998 -0.003 5
5.6279998 -0.55900002 0.085000001 5
4.428 -0.43200001 -0.28400001 5
4.6459999 -0.46000001 -0.22400001 4
4.8520002 -0.48899999 -0.15700001 4
5.079 -0.51999998 -0.083999999 5
5.3460002 -0.55699998 -0.003 6
5.625 -0.59600002 0.085000001 6
4.4310002 -0.461 -0.28400001 6
4.6220002 -0.48800001 -0.223 4
4.848 -0.51999998 -0.15700001 4
5.0760002 -0.55400002 -0.083999999 4
5.3390002 -0.59200001 -0.003 6
5.618 -0.63300002 0.083999999 7
4.4219999 -0.49000001 -0.28400001 4
4.6220002 -0.51899999 -0.223 5
4.8449998 -0.55199999 -0.15700001 4
5.0710001 -0.58700001 -0.083999999 5
5.3330002 -0.62599999 -0.0040000002 5
5.6110001 -0.66900003 0.083999999 6
4.415 -0.51800001 -0.28400001 5
4.618 -0.54900002 -0.223 6
4.835 -0.583 -0.15700001 5
5.066 -0.61900002 -0.083999999 5
5.3200002 -0.65899998 -0.0040000002 5
0 0 0 50
4.421 -0.54699999 -0.285 6
4.6110001 -0.57800001 -0.22400001 5
4.822 -0.61199999 -0.15700001 4
5.0549998 -0.65100002 -0.085000001 5
5.3150001 -0.69300002 -0.0040000002 5
5.5960002 -0.74000001 0.082999997 6
4.4439998 -0.579 -0.287 7
4.6040001 -0.60699999 -0.22400001 5
4.8309999 -0.64499998 -0.15800001 4
5.0570002 -0.68300003 -0.085000001 5
5.309 -0.72600001 -0.0049999999 5
5.5890002 -0.77499998 0.082999997 5
4.4060001 -0.602 -0.285 5
4.6030002 -0.63599998 -0.22499999 5
4.8210001 -0.67299998 -0.15800001 4
5.04 -0.71200001 -0.085000001 5
5.3010001 -0.759 -0.0060000001 4
5.5840001 -0.80900002 0.082000002 5
4.4050002 -0.62900001 -0.28600001 6
4.598 -0.66399997 -0.22499999 5
4.8150001 -0.70300001 -0.15899999 5
5.0419998 -0.74400002 -0.086000003 5
5.2969999 -0.79100001 -0.0060000001 5
5.5819998 -0.84299999 0.081 5
0 0 0 50
4.5910001 -0.69099998 -0.226 6
4.8080001 -0.73100001 -0.16 4
5.0440001 -0.77600002 -0.086999997 5
5.2880001 -0.82200003 -0.0070000002 5
5.5689998 -0.875 0.079999998 5
4.3860002 -0.68000001 -0.287 5
4.585 -0.71799999 -0.227 5
4.796 -0.75800002 -0.161 4
5.0250001 -0.80299997 -0.088 4
5.2779999 -0.852 -0.0089999996 5
5.5570002 -0.90600002 0.079000004 5
4.3850002 -0.70599997 -0.28799999 6
4.5700002 -0.74299997 -0.227 4
4.7880001 -0.78600001 -0.162 5
5.02 -0.83200002 -0.089000002 6
5.2779999 -0.88300002 -0.0099999998 5
5.553 -0.93900001 0.077 6
4.375 -0.73100001 -0.289 6
4.573 -0.76999998 -0.229 7
4.789 -0.81400001 -0.163 7
0 0 0 50
5.263 -0.91100001 -0.011 5
5.5440001 -0.96899998 0.075000003 6
4.3639998 -0.75400001 -0.289 6
4.5599999 -0.79400003 -0.23 5
4.776 -0.83899999 -0.164 6
4.9949999 -0.88499999 -0.092 4
5.2480001 -0.93900001 -0.013 5
5.527 -0.99800003 0.074000001 6
4.3610001 -0.77899998 -0.29100001 6
4.5479999 -0.81800002 -0.23100001 6
4.7719998 -0.86500001 -0.16599999 7
4.9970002 -0.91399997 -0.093999997 5
5.2379999 -0.96600002 -0.015 5
5.5229998 -1.028 0.071999997 5
4.349 -0.801 -0.292 6
0 0 0 50
4.7620001 -0.88999999 -0.167 5
4.9809999 -0.93800002 -0.094999999 5
5.2280002 -0.99299997 -0.017000001 6
5.5029998 -1.054 0.068999998 5
4.355 -0.82599998 -0.294 6
4.5419998 -0.86799997 -0.234 6
4.7509999 -0.91399997 -0.169 6
4.9710002 -0.96399999 -0.097999997 5
5.224 -1.021 -0.018999999 5
5.4990001 -1.0829999 0.067000002 5
4.3330002 -0.84500003 -0.29499999 6
4.526 -0.889 -0.236 5
4.7340002 -0.93599999 -0.171 5
4.9549999 -0.98699999 -0.098999999 5
5.2080002 -1.045 -0.022 6
5.4850001 -1.109 0.064000003 5
0 0 0 50
4.5110002 -0.91000003 -0.237 5
4.724 -0.95899999 -0.17299999 6
4.9559999 -1.013 -0.102 6
5.198 -1.0700001 -0.024 5
5.4790001 -1.136 0.061000001 5
4.316 -0.88700002 -0.29800001 6
4.4980001 -0.93000001 -0.23899999 6
4.723 -0.98299998 -0.175 5
4.9419999 -1.035 -0.104 5
5.1849999 -1.0930001 -0.027000001 5
5.4619999 -1.16 0.057999998 5
4.3309999 -0.912 -0.30199999 7
0 0 0 50
4.711 -1.0039999 -0.178 6
4.934 -1.057 -0.107 4
5.1729999 -1.1160001 -0.029999999 5
5.4520001 -1.184 0.055 5
4.3000002 -0.92699999 -0.303 7
4.4959998 -0.97399998 -0.244 7
4.697 -1.023 -0.18000001 5
4.9190001 -1.0779999 -0.11 5
5.1599998 -1.138 -0.033 5
5.427 -1.205 0.050999999 5
4.3169999 -0.95200002 -0.30700001 7
4.4749999 -0.991 -0.24600001 6
4.6810002 -1.0420001 -0.183 5
0 0 0 50
5.1430001 -1.158 -0.035999998 4
5.4239998 -1.229 0.046999998 5
4.289 -0.96499997 -0.308 7
4.46 -1.008 -0.249 6
4.6760001 -1.062 -0.186 4
4.8940001 -1.118 -0.116 4
5.1290002 -1.178 -0.039999999 5
5.402 -1.248 0.043000001 5
4.2639999 -0.97899997 -0.31 6
4.4530001 -1.027 -0.252 6
4.6669998 -1.081 -0.189 4
4.8779998 -1.135 -0.119 5
5.119 -1.198 -0.044 5
5.3889999 -1.268 0.039000001 5
4.2670002 -0.99900001 -0.31299999 7
0 0 0 50
4.651 -1.097 -0.192 4
4.8699999 -1.154 -0.123 4
5.1069999 -1.216 -0.046999998 5
5.369 -1.285 0.035 5
4.244 -1.011 -0.315 6
4.4299998 -1.059 -0.25799999 5
4.6420002 -1.114 -0.19599999 4
4.8559999 -1.17 -0.127 4
5.0939999 -1.233 -0.050999999 5
5.3520002 -1.302 0.029999999 4
4.2270002 -1.024 -0.317 6
4.408 -1.071 -0.25999999 5
0 0 0 50
4.8309999 -1.183 -0.13 4
5.0749998 -1.248 -0.056000002 5
5.342 -1.3200001 0.026000001 5
4.2270002 -1.041 -0.32100001 7
4.401 -1.087 -0.264 5
4.6110001 -1.142 -0.20200001 4
4.8200002 -1.199 -0.134 4
5.0549998 -1.262 -0.059999999 5
5.3130002 -1.3329999 0.021 4
4.2069998 -1.052 -0.324 6
4.3800001 -1.098 -0.26699999 4
4.5869999 -1.153 -0.206 5
0 0 0 50
5.0469999 -1.278 -0.064999998 12
5.2969999 -1.347 0.016000001 5
4.1999998 -1.0650001 -0.32800001 6
4.3740001 -1.112 -0.271 4
4.5770001 -1.1670001 -0.20999999 5
4.7859998 -1.224 -0.14300001 5
5.0409999 -1.294 -0.068999998 7
5.2789998 -1.36 0.0099999998 5
4.1880002 -1.076 -0.331 6
4.3610001 -1.123 -0.27500001 5
4.5700002 -1.1799999 -0.214 4
4.777 -1.237 -0.147 7
5.013 -1.303 -0.074000001 5
5.2620001 -1.372 0.0049999999 5
0 0 0 50
4.3629999 -1.138 -0.27900001 3
4.5580001 -1.191 -0.219 4
4.763 -1.248 -0.152 5
4.9889998 -1.311 -0.079000004 5
5.2449999 -1.383 0 5
4.1529999 -1.094 -0.33700001 6
4.3280001 -1.141 -0.28099999 4
4.5300002 -1.197 -0.222 5
4.743 -1.256 -0.156 4
4.9720001 -1.3200001 -0.083999999 4
5.2280002 -1.393 -0.0049999999 4
4.152 -1.1059999 -0.34200001 6
4.3280001 -1.154 -0.28600001 4
0 0 0 50
4.7259998 -1.2640001 -0.161 5
4.9510002 -1.3279999 -0.089000002 5
5.2030001 -1.399 -0.011 5
4.132 -1.1109999 -0.34400001 6
4.3080001 -1.16 -0.28999999 3
4.5100002 -1.216 -0.23100001 4
4.71 -1.272 -0.16500001 4
4.9330001 -1.335 -0.093999997 4
5.1810002 -1.405 -0.016000001 4
4.1079998 -1.115 -0.34799999 5
4.2930002 -1.166 -0.294 5
4.4910002 -1.221 -0.235 4
4.6939998 -1.278 -0.17 5
4.921 -1.342 -0.1 5
0 0 0 50
4.1040001 -1.124 -0.352 6
4.2670002 -1.169 -0.29699999 5
4.4660001 -1.224 -0.23899999 5
4.6760001 -1.283 -0.175 5
4.9000001 -1.346 -0.105 5
5.1389999 -1.415 -0.028000001 5
4.1020002 -1.132 -0.35699999 7
4.2740002 -1.179 -0.303 4
4.4689999 -1.234 -0.244 4
4.658 -1.2869999 -0.18000001 4
4.882 -1.35 -0.11 5
5.1199999 -1.419 -0.034000002 5
4.0809999 -1.1339999 -0.36000001 7
4.2420001 -1.178 -0.30599999 4
4.448 -1.2359999 -0.249 4
4.6500001 -1.293 -0.186 5
4.862 -1.353 -0.116 5
5.1100001 -1.423 -0.039999999 6
4.059 -1.135 -0.36300001 6
4.2259998 -1.181 -0.30899999 4
4.4180002 -1.234 -0.252 5
0 0 0 50
4.8439999 -1.354 -0.121 5
5.0830002 -1.4220001 -0.046 6
4.053 -1.1390001 -0.36700001 6
4.2080002 -1.182 -0.31299999 5
4.4169998 -1.24 -0.25799999 4
4.6129999 -1.295 -0.19499999 4
4.829 -1.3559999 -0.127 5
5.0749998 -1.426 -0.052000001 6
4.0320001 -1.138 -0.37 6
4.1950002 -1.183 -0.31799999 5
4.4039998 -1.2410001 -0.26199999 4
4.5910001 -1.294 -0.2 5
4.809 -1.355 -0.132 5
5.0479999 -1.423 -0.057999998 5
4.0209999 -1.14 -0.37400001 6
4.1799998 -1.183 -0.322 6
4.3889999 -1.2410001 -0.26699999 4
4.5770001 -1.293 -0.205 6
4.7979999 -1.355 -0.138 5
5.0320001 -1.4220001 -0.064000003 5
4.0139999 -1.141 -0.37900001 6
4.1750002 -1.1849999 -0.32600001 6
4.369 -1.238 -0.271 4
4.566 -1.293 -0.20999999 7
4.7779999 -1.352 -0.14300001 4
5.0019999 -1.415 -0.07 4
3.9949999 -1.138 -0.382 6
4.1599998 -1.183 -0.331 6
0 0 0 50
4.5489998 -1.29 -0.215 7
4.7620001 -1.349 -0.148 4
4.9840002 -1.4119999 -0.075999998 5
3.98 -1.136 -0.38600001 5
4.1430001 -1.1799999 -0.33399999 5
4.3330002 -1.2309999 -0.27900001 4
4.533 -1.286 -0.219 5
4.7340002 -1.342 -0.153 5
4.967 -1.4069999 -0.081 5
3.971 -1.1339999 -0.38999999 5
4.131 -1.177 -0.338 5
4.3140001 -1.226 -0.28400001 4
4.5279999 -1.285 -0.22499999 5
4.7189999 -1.337 -0.15899999 5
4.948 -1.401 -0.086999997 5
3.957 -1.13 -0.39300001 5
4.119 -1.173 -0.34200001 6
4.2969999 -1.221 -0.28799999 5
4.5009999 -1.276 -0.229 5
4.7069998 -1.332 -0.164 6
4.9369998 -1.395 -0.093000002 5
3.941 -1.125 -0.396 5
4.1079998 -1.169 -0.34599999 6
4.2800002 -1.214 -0.292 4
4.4949999 -1.272 -0.234 5
4.6929998 -1.326 -0.169 6
4.9200001 -1.387 -0.097999997 5
3.937 -1.122 -0.40099999 6
4.0970001 -1.163 -0.34999999 5
4.2930002 -1.215 -0.29699999 4
4.4749999 -1.2640001 -0.23800001 5
4.678 -1.318 -0.17399999 7
4.9050002 -1.3789999 -0.104 5
3.931 -1.117 -0.405 6
4.0799999 -1.156 -0.35299999 5
4.256 -1.201 -0.30000001 4
4.4590001 -1.255 -0.242 6
4.6700001 -1.311 -0.17900001 6
0 0 0 50
3.9200001 -1.1109999 -0.40799999 6
4.066 -1.148 -0.35699999 6
4.2610002 -1.199 -0.30500001 4
4.4429998 -1.2460001 -0.24600001 6
4.6459999 -1.299 -0.183 5
4.8740001 -1.359 -0.114 6
3.911 -1.104 -0.41100001 6
4.053 -1.1390001 -0.36000001 6
4.2379999 -1.187 -0.308 5
4.4320002 -1.237 -0.25 6
4.6360002 -1.289 -0.18700001 6
4.8579998 -1.347 -0.119 6
3.9130001 -1.099 -0.41600001 6
4.0469999 -1.132 -0.36399999 6
4.217 -1.175 -0.31099999 5
4.4190001 -1.226 -0.25400001 5
4.6209998 -1.278 -0.192 5
4.8530002 -1.3380001 -0.124 6
0 0 0 50
4.04 -1.124 -0.368 6
4.2140002 -1.1670001 -0.315 5
4.402 -1.214 -0.25799999 6
4.6110001 -1.267 -0.19599999 5
4.842 -1.326 -0.12800001 6
3.9030001 -1.084 -0.42300001 7
4.039 -1.1160001 -0.37200001 6
4.2010002 -1.155 -0.31799999 4
4.4029999 -1.206 -0.26199999 7
4.599 -1.2539999 -0.2 6
4.816 -1.309 -0.132 6
3.8929999 -1.074 -0.42500001 7
4.0180001 -1.102 -0.37400001 5
4.2150002 -1.15 -0.32300001 4
4.3779998 -1.189 -0.26499999 5
4.586 -1.2410001 -0.204 6
4.8140001 -1.2970001 -0.13699999 7
3.8759999 -1.061 -0.42699999 6
0 0 0 50
4.1880002 -1.133 -0.32499999 6
4.3779998 -1.179 -0.26899999 6
4.5799999 -1.228 -0.208 5
4.7950001 -1.28 -0.141 6
3.8829999 -1.054 -0.43099999 6
4.0029998 -1.08 -0.37900001 6
4.178 -1.1210001 -0.32800001 6
4.3699999 -1.166 -0.27200001 5
4.5700002 -1.2130001 -0.211 6
4.7789998 -1.263 -0.14399999 4
3.8740001 -1.041 -0.43399999 6
3.9979999 -1.068 -0.382 6
4.164 -1.1059999 -0.33000001 5
4.3540001 -1.15 -0.27500001 5
4.566 -1.199 -0.215 6
4.7779999 -1.249 -0.148 7
3.8499999 -1.024 -0.43399999 5
0 0 0 50
4.1599998 -1.0930001 -0.333 6
4.3660002 -1.14 -0.27900001 4
4.5539999 -1.183 -0.21799999 6
4.7719998 -1.233 -0.152 8
3.8440001 -1.011 -0.43599999 5
3.9909999 -1.043 -0.38800001 6
4.1539998 -1.079 -0.336 6
4.3460002 -1.1210001 -0.28099999 6
4.5549998 -1.168 -0.221 7
4.7600002 -1.215 -0.155 6
3.862 -1.0039999 -0.44100001 6
3.9960001 -1.0319999 -0.391 6
4.1529999 -1.0650001 -0.33899999 6
4.342 -1.1059999 -0.28400001 6
4.546 -1.151 -0.22400001 6
4.7550001 -1.197 -0.15800001 7
3.8610001 -0.991 -0.44400001 6
3.971 -1.012 -0.391 5
4.1430001 -1.048 -0.34099999 5
4.336 -1.09 -0.28600001 7
4.5339999 -1.132 -0.226 6
4.7449999 -1.178 -0.161 6
3.823 -0.96799999 -0.44100001 5
3.9820001 -1 -0.39500001 6
4.138 -1.0319999 -0.34299999 5
4.323 -1.071 -0.28799999 6
4.5359998 -1.1160001 -0.229 7
4.7389998 -1.159 -0.163 7
3.8329999 -0.95599997 -0.44499999 6
3.9719999 -0.98299998 -0.396 6
4.1430001 -1.018 -0.345 6
0 0 0 50
4.5279999 -1.097 -0.23100001 7
4.7329998 -1.1390001 -0.16599999 7
3.8210001 -0.93900001 -0.44499999 5
3.98 -0.97000003 -0.39899999 6
4.1399999 -1.001 -0.347 6
4.316 -1.036 -0.292 5
4.5209999 -1.077 -0.233 6
4.73 -1.119 -0.168 7
3.842 -0.92900002 -0.44999999 7
3.973 -0.95200002 -0.40000001 6
4.1360002 -0.98299998 -0.34900001 6
4.322 -1.0190001 -0.294 6
4.52 -1.058 -0.235 6
4.7270002 -1.099 -0.17 7
3.8369999 -0.912 -0.45100001 6
3.96 -0.93300003 -0.40000001 6
4.132 -0.96499997 -0.34999999 6
4.3109999 -0.99900001 -0.29499999 6
4.5229998 -1.039 -0.237 6
4.73 -1.079 -0.17200001 7
3.8380001 -0.89600003 -0.45199999 6
3.964 -0.917 -0.40200001 6
0 0 0 50
4.3109999 -0.97899997 -0.29699999 6
4.5159998 -1.017 -0.23800001 7
4.717 -1.0549999 -0.17299999 6
3.8340001 -0.87800002 -0.45300001 7
3.9619999 -0.898 -0.403 6
4.1290002 -0.92699999 -0.35299999 6
4.3119998 -0.95999998 -0.29800001 6
4.5139999 -0.99699998 -0.23999999 7
4.7220001 -1.034 -0.175 6
3.8399999 -0.861 -0.45500001 7
3.973 -0.88200003 -0.405 6
4.131 -0.90899998 -0.354 6
4.3150001 -0.94 -0.30000001 7
4.5159998 -0.97600001 -0.241 7
4.7319999 -1.013 -0.177 8
3.8429999 -0.84399998 -0.456 7
3.9579999 -0.86000001 -0.40400001 5
4.1290002 -0.88800001 -0.35499999 6
4.3060002 -0.91799998 -0.30000001 5
4.5089998 -0.95200002 -0.242 6
4.7179999 -0.98699999 -0.177 6
3.829 -0.82200003 -0.45500001 6
3.9779999 -0.84500003 -0.40700001 6
4.1350002 -0.86900002 -0.35600001 6
4.3049998 -0.89600003 -0.301 6
0 0 0 50
4.7270002 -0.96499997 -0.17900001 7
3.8410001 -0.80500001 -0.45699999 6
3.9749999 -0.824 -0.40700001 6
4.132 -0.847 -0.35600001 6
4.3200002 -0.87699997 -0.30199999 7
4.5139999 -0.90700001 -0.243 6
4.7199998 -0.94 -0.17900001 7
3.816 -0.77999997 -0.454 6
3.964 -0.801 -0.40599999 5
4.131 -0.82599998 -0.35600001 6
4.316 -0.85399997 -0.303 7
4.5149999 -0.884 -0.244 6
4.7309999 -0.917 -0.18000001 7
3.8399999 -0.76499999 -0.45699999 7
3.967 -0.78100002 -0.40700001 6
4.1479998 -0.80699998 -0.35800001 7
4.3179998 -0.83099997 -0.303 6
4.5170002 -0.86000001 -0.244 7
4.7249999 -0.88999999 -0.18000001 6
3.835 -0.74299997 -0.456 6
3.974 -0.76099998 -0.40799999 6
0 0 0 50
4.3189998 -0.80800003 -0.303 6
4.527 -0.83700001 -0.245 7
4.7329998 -0.866 -0.18000001 9
3.845 -0.72399998 -0.45699999 7
3.9979999 -0.74299997 -0.41 7
4.1350002 -0.759 -0.35699999 6
4.3299999 -0.78600001 -0.30399999 7
4.5219998 -0.81099999 -0.245 5
4.7480001 -0.84200001 -0.18099999 8
3.8510001 -0.70300001 -0.458 7
3.9909999 -0.71899998 -0.40900001 6
4.1409998 -0.73699999 -0.35699999 6
4.329 -0.76099998 -0.30399999 6
4.5349998 -0.78799999 -0.245 7
4.7690001 -0.81900001 -0.182 8
3.848 -0.68000001 -0.45699999 7
3.9949999 -0.69700003 -0.40900001 6
4.1430001 -0.713 -0.35699999 6
4.3309999 -0.736 -0.303 6
4.5349998 -0.76099998 -0.245 6
4.7519999 -0.78799999 -0.18099999 7
3.8599999 -0.66000003 -0.458 6
4.0079999 -0.676 -0.41 7
0 0 0 50
4.3410001 -0.71200001 -0.30399999 6
4.5510001 -0.73699999 -0.245 7
4.7470002 -0.759 -0.18000001 7
3.8499999 -0.63499999 -0.456 7
4.0050001 -0.65100002 -0.40900001 6
4.1630001 -0.667 -0.35800001 6
4.3410001 -0.68599999 -0.303 6
4.5359998 -0.70700002 -0.244 6
4.7529998 -0.73100001 -0.18000001 6
3.8599999 -0.61299998 -0.456 7
4.0079999 -0.62699997 -0.40799999 6
4.1849999 -0.64499998 -0.359 7
4.3559999 -0.662 -0.303 3
4.5440001 -0.68099999 -0.244 7
4.763 -0.704 -0.18000001 7
3.8729999 -0.59100002 -0.45699999 7
4.006 -0.602 -0.40700001 6
4.1810002 -0.61900002 -0.35699999 7
4.3470001 -0.634 -0.30199999 6
4.5510001 -0.65399998 -0.243 7
4.7659998 -0.67500001 -0.17900001 6
3.8770001 -0.56800002 -0.456 7
4.02 -0.579 -0.40799999 7
4.1760001 -0.59200001 -0.35600001 6
4.3610001 -0.60900003 -0.30199999 5
4.566 -0.62800002 -0.243 7
4.7729998 -0.64600003 -0.178 6
3.8829999 -0.54400003 -0.456 6
0 0 0 50
4.1789999 -0.56699997 -0.35499999 6
4.3759999 -0.58399999 -0.30199999 7
4.5580001 -0.59799999 -0.242 5
4.7779999 -0.61699998 -0.177 6
3.8870001 -0.51999998 -0.45500001 7
4.0320001 -0.52999997 -0.40700001 6
4.1849999 -0.54100001 -0.35499999 6
4.3709998 -0.55500001 -0.30000001 6
4.5700002 -0.56999999 -0.241 6
4.7969999 -0.58899999 -0.177 7
3.891 -0.495 -0.454 7
4.006 -0.50099999 -0.403 5
4.1859999 -0.514 -0.354 6
4.3829999 -0.528 -0.30000001 7
4.5799999 -0.542 -0.23999999 7
4.7950001 -0.55800003 -0.176 7
3.8940001 -0.47 -0.45300001 7
4.0120001 -0.47499999 -0.40200001 5
0 0 0 50
4.3850002 -0.5 -0.29899999 6
4.5830002 -0.51200002 -0.23899999 6
4.7979999 -0.52700001 -0.175 6
3.901 -0.44499999 -0.45300001 6
4.0300002 -0.44999999 -0.403 6
4.2090001 -0.461 -0.35299999 6
4.3829999 -0.47099999 -0.29699999 5
4.5910001 -0.48300001 -0.23800001 5
4.823 -0.49700001 -0.17399999 7
3.908 -0.41999999 -0.45199999 6
4.0380001 -0.42399999 -0.40200001 5
4.2160001 -0.43399999 -0.352 6
4.3940001 -0.442 -0.29699999 5
4.6059999 -0.454 -0.23800001 6
4.8200002 -0.465 -0.17200001 7
3.9189999 -0.39399999 -0.45199999 6
4.059 -0.39899999 -0.403 6
4.2140002 -0.405 -0.34999999 6
4.4039998 -0.414 -0.296 5
4.6110001 -0.42399999 -0.236 6
4.8319998 -0.43399999 -0.171 7
3.9170001 -0.368 -0.44999999 7
4.0710001 -0.373 -0.40200001 6
4.224 -0.37799999 -0.34999999 4
4.4200001 -0.38600001 -0.29499999 6
4.612 -0.39300001 -0.235 5
0 0 0 50
3.921 -0.34099999 -0.449 7
4.0619998 -0.34400001 -0.40000001 6
4.223 -0.34799999 -0.34799999 5
4.4200001 -0.35499999 -0.294 5
4.631 -0.36199999 -0.234 6
4.8470001 -0.36899999 -0.169 6
3.9330001 -0.31400001 -0.449 6
4.0770001 -0.317 -0.40000001 6
4.2399998 -0.31999999 -0.34799999 6
4.427 -0.32499999 -0.29300001 5
4.6409998 -0.331 -0.233 6
4.8530002 -0.336 -0.168 5
3.941 -0.28799999 -0.44800001 7
4.0910001 -0.289 -0.40000001 6
4.2680001 -0.29300001 -0.34900001 6
4.434 -0.29499999 -0.292 6
4.6399999 -0.29899999 -0.23199999 6
4.8590002 -0.303 -0.16599999 6
3.9530001 -0.25999999 -0.44800001 7
4.0739999 -0.259 -0.396 5
0 0 0 50
4.4429998 -0.264 -0.29100001 5
4.6430001 -0.266 -0.23 5
4.8709998 -0.26899999 -0.16500001 6
3.931 -0.23100001 -0.44400001 5
4.0879998 -0.23100001 -0.396 6
4.2579999 -0.23199999 -0.345 5
4.454 -0.233 -0.28999999 5
4.6630001 -0.234 -0.23 6
4.8829999 -0.235 -0.164 7
3.9649999 -0.204 -0.44600001 7
4.086 -0.20200001 -0.39399999 5
4.2680001 -0.20200001 -0.34400001 6
4.4569998 -0.20100001 -0.28799999 5
4.6700001 -0.20200001 -0.229 6
4.888 -0.20100001 -0.162 6
3.967 -0.176 -0.44499999 6
4.105 -0.17299999 -0.39500001 6
4.276 -0.17200001 -0.34299999 6
4.4650002 -0.17 -0.287 5
4.6810002 -0.169 -0.227 7
4.9039998 -0.167 -0.161 6
3.9690001 -0.147 -0.44400001 7
0 0 0 50
4.2849998 -0.141 -0.34200001 6
4.4759998 -0.138 -0.287 6
4.6859999 -0.13500001 -0.226 6
4.915 -0.132 -0.16 6
3.9749999 -0.118 -0.44299999 7
4.1040001 -0.114 -0.39199999 5
4.283 -0.11 -0.34099999 6
4.4860001 -0.106 -0.28600001 6
4.684 -0.101 -0.22499999 5
4.9180002 -0.097000003 -0.15899999 4
3.9909999 -0.089000002 -0.44299999 6
4.1170001 -0.083999999 -0.391 5
4.2979999 -0.079000004 -0.34099999 6
4.4970002 -0.072999999 -0.285 5
4.7010002 -0.067000002 -0.22400001 6
4.9380002 -0.061000001 -0.15800001 7
3.9960001 -0.059999999 -0.442 6
4.1209998 -0.052999999 -0.38999999 5
4.3099999 -0.046999998 -0.34 6
4.4920001 -0.039999999 -0.28299999 5
4.7030001 -0.033 -0.223 5
4.9450002 -0.025 -0.15700001 7
4.0029998 -0.029999999 -0.442 7
4.1300001 -0.022 -0.38999999 6
0 0 0 50
4.5079999 -0.0060000001 -0.28299999 5
4.7220001 0.001 -0.222 6
4.9419999 0.011 -0.155 7
4.0110002 0 -0.442 6
4.1399999 0.0080000004 -0.38999999 6
4.323 0.017000001 -0.338 6
4.5100002 0.026000001 -0.28200001 4
4.7329998 0.035999998 -0.221 6
4.9559999 0.048 -0.154 7
4.0149999 0.029999999 -0.44100001 7
4.145 0.039000001 -0.389 6
4.3210001 0.048999999 -0.33700001 6
4.5209999 0.059999999 -0.28099999 5
4.7379999 0.071999997 -0.22 6
4.9710002 0.085000001 -0.153 7
3.994 0.059999999 -0.43700001 5
4.1490002 0.071000002 -0.38800001 5
4.335 0.082000002 -0.33700001 6
4.5289998 0.093999997 -0.28099999 5
4.7540002 0.108 -0.22 7
4.9679999 0.123 -0.152 5
4.0310001 0.092 -0.44 6
4.1529999 0.103 -0.38800001 5
4.335 0.115 -0.336 4
0 0 0 50
4.7579999 0.145 -0.219 6
4.9949999 0.161 -0.152 7
4.0250001 0.123 -0.43900001 6
4.2030001 0.13600001 -0.391 6
4.342 0.149 -0.336 5
4.5539999 0.164 -0.28 6
4.7620001 0.18099999 -0.21799999 6
4.9970002 0.199 -0.15099999 7
4.0310001 0.154 -0.43900001 6
4.1589999 0.167 -0.38600001 5
4.3509998 0.183 -0.33500001 4
4.5570002 0.2 -0.27900001 4
4.7729998 0.21799999 -0.21799999 6
5.0029998 0.23800001 -0.15000001 7
4.04 0.18700001 -0.43900001 6
4.177 0.2 -0.38699999 5
4.3600001 0.21699999 -0.33500001 5
4.559 0.235 -0.27900001 5
4.7729998 0.255 -0.21699999 3
5.0110002 0.27700001 -0.15000001 6
4.0409999 0.21799999 -0.43799999 7
4.1900001 0.234 -0.38800001 6
4.3590002 0.25099999 -0.33500001 4
4.5630002 0.271 -0.27900001 4
4.7810001 0.292 -0.21699999 5
0 0 0 50
4.046 0.25099999 -0.43799999 6
4.1919999 0.26699999 -0.38800001 5
4.368 0.28600001 -0.33500001 5
4.5809999 0.308 -0.27900001 3
4.7859998 0.33000001 -0.21699999 5
5.026 0.35600001 -0.149 6
4.052 0.28299999 -0.43900001 7
4.2210002 0.30199999 -0.38999999 6
4.3730001 0.32100001 -0.33500001 5
4.5840001 0.34400001 -0.27900001 4
4.7930002 0.36899999 -0.21600001 3
5.0240002 0.39500001 -0.148 5
4.0539999 0.31600001 -0.43799999 7
4.2059999 0.33500001 -0.38800001 6
4.381 0.35600001 -0.33500001 5
4.5890002 0.38100001 -0.27900001 3
4.7919998 0.40599999 -0.21600001 5
5.0320001 0.435 -0.148 6
4.0640001 0.34900001 -0.43900001 7
4.2010002 0.368 -0.38800001 5
4.3800001 0.391 -0.33500001 4
4.5949998 0.41800001 -0.27900001 6
4.8049998 0.44499999 -0.21600001 5
5.0380001 0.47499999 -0.148 6
4.0669999 0.382 -0.44 6
0 0 0 50
4.3889999 0.426 -0.336 4
4.5949998 0.454 -0.27900001 5
4.809 0.48300001 -0.21600001 6
5.0500002 0.51599997 -0.148 7
4.066 0.41499999 -0.44 6
4.2379999 0.43900001 -0.391 6
4.3909998 0.46200001 -0.336 4
4.5949998 0.491 -0.27900001 5
4.8140001 0.52200001 -0.21699999 6
5.052 0.55599999 -0.148 6
4.0770001 0.449 -0.44100001 6
4.2259998 0.472 -0.38999999 6
4.3940001 0.49700001 -0.336 4
4.6020002 0.528 -0.28 6
4.822 0.56099999 -0.21699999 6
5.0489998 0.59600002 -0.148 6
4.0760002 0.48199999 -0.44100001 7
4.2210002 0.50599998 -0.38999999 5
4.3959999 0.53299999 -0.33700001 4
4.605 0.56599998 -0.28 6
4.8319998 0.602 -0.21799999 7
5.0570002 0.63800001 -0.149 6
4.0749998 0.51499999 -0.442 6
0 0 0 50
4.3990002 0.56999999 -0.33700001 4
4.6139998 0.60500002 -0.28099999 6
4.8249998 0.63999999 -0.21799999 6
5.0609999 0.67900002 -0.149 7
4.073 0.54900002 -0.442 6
4.2529998 0.579 -0.39399999 6
4.4109998 0.60699999 -0.33899999 6
4.6209998 0.64399999 -0.28200001 7
4.835 0.68099999 -0.219 7
5.066 0.722 -0.15000001 6
4.0970001 0.58600003 -0.44600001 6
4.243 0.61299998 -0.39399999 6
4.414 0.64399999 -0.34 6
4.6110001 0.68000001 -0.28200001 5
4.8280001 0.71899998 -0.22 6
5.0710001 0.764 -0.15099999 7
4.0819998 0.61799997 -0.44499999 7
4.263 0.65100002 -0.39700001 6
4.4060001 0.68000001 -0.34 4
4.6230001 0.72000003 -0.28400001 6
4.835 0.75999999 -0.221 6
5.0650001 0.80400002 -0.152 6
4.0869999 0.653 -0.447 7
4.2449999 0.68400002 -0.396 6
4.4159999 0.71799999 -0.34200001 5
0 0 0 50
4.8460002 0.80199999 -0.222 7
5.0630002 0.84600002 -0.153 6
4.0840001 0.68800002 -0.44800001 6
4.2410002 0.71899998 -0.39700001 6
4.402 0.75300002 -0.34200001 5
4.618 0.796 -0.28600001 6
4.8439999 0.84200001 -0.223 7
5.0760002 0.88999999 -0.154 7
4.085 0.722 -0.449 7
4.2529998 0.75700003 -0.40000001 6
4.4169998 0.792 -0.345 5
4.6220002 0.83499998 -0.287 6
4.8439999 0.88200003 -0.22499999 6
5.0770001 0.93199998 -0.156 7
4.0879998 0.75700003 -0.45100001 6
4.2410002 0.79100001 -0.40000001 6
4.4120002 0.82800001 -0.34599999 5
4.6259999 0.87400001 -0.289 7
0 0 0 50
5.072 0.97299999 -0.15700001 6
4.0819998 0.79100001 -0.45199999 6
4.2340002 0.82499999 -0.40099999 6
4.4120002 0.866 -0.34799999 4
4.6209998 0.91299999 -0.29100001 6
4.8330002 0.96100003 -0.227 5
5.0669999 1.015 -0.15800001 6
4.0879998 0.82700002 -0.45500001 6
4.2150002 0.85799998 -0.40099999 4
4.415 0.90399998 -0.34999999 4
4.6160002 0.95099998 -0.292 6
4.8449998 1.0039999 -0.23 7
5.0749998 1.059 -0.16 6
4.0539999 0.85600001 -0.45300001 5
4.224 0.89600003 -0.40400001 6
0 0 0 50
4.6160002 0.99000001 -0.294 5
4.8410001 1.045 -0.23100001 7
5.073 1.102 -0.162 6
4.085 0.898 -0.45899999 6
4.2270002 0.93300003 -0.40599999 5
4.4120002 0.97899997 -0.354 4
4.6129999 1.029 -0.296 4
4.842 1.087 -0.234 7
5.0710001 1.145 -0.164 5
4.0689998 0.93000001 -0.45899999 6
4.217 0.96799999 -0.40799999 4
4.4070001 1.016 -0.35499999 4
4.612 1.069 -0.29800001 4
4.8299999 1.126 -0.235 6
5.0780001 1.1900001 -0.167 6
0 0 0 50
4.2179999 1.005 -0.41 5
4.3979998 1.052 -0.35699999 4
4.6100001 1.109 -0.301 4
4.8319998 1.168 -0.23800001 5
5.0739999 1.233 -0.169 6
4.0549998 0.99800003 -0.463 6
4.2179999 1.0420001 -0.41299999 5
4.401 1.092 -0.36000001 5
4.612 1.149 -0.303 4
4.8270001 1.209 -0.23999999 5
5.066 1.275 -0.171 6
4.04 1.031 -0.46399999 5
4.2049999 1.076 -0.41499999 5
4.3979998 1.13 -0.36300001 4
4.6020002 1.188 -0.30500001 5
0 0 0 50
5.0700002 1.321 -0.17399999 5
4.0489998 1.069 -0.46799999 6
4.2080002 1.115 -0.41800001 5
4.4130001 1.173 -0.36700001 4
4.6090002 1.23 -0.30899999 4
4.8270001 1.294 -0.24600001 5
5.0570002 1.3609999 -0.176 4
4.0339999 1.102 -0.46900001 5
4.204 1.151 -0.421 5
4.4120002 1.212 -0.37 4
4.6009998 1.2690001 -0.31099999 4
4.8150001 1.3329999 -0.248 4
5.066 1.409 -0.18000001 4
4.0440001 1.141 -0.47400001 6
4.1989999 1.188 -0.42300001 5
4.3909998 1.2460001 -0.37099999 5
4.5949998 1.308 -0.31400001 5
4.8169999 1.376 -0.25099999 4
5.0560002 1.451 -0.182 4
4.0320001 1.174 -0.47600001 5
0 0 0 50
4.401 1.288 -0.375 4
4.5999999 1.35 -0.317 4
4.8169999 1.419 -0.25400001 4
5.0489998 1.493 -0.185 4
4.0469999 1.216 -0.48100001 8
4.197 1.263 -0.43000001 5
4.3870001 1.324 -0.37799999 4
4.5900002 1.3890001 -0.31999999 4
4.8080001 1.46 -0.257 4
5.0409999 1.536 -0.18799999 4
4.0149999 1.243 -0.48100001 4
4.1919999 1.3 -0.433 5
4.3699999 1.358 -0.38 5
4.5840001 1.428 -0.32300001 3
4.803 1.501 -0.25999999 3
5.0430002 1.582 -0.192 4
4.0349998 1.286 -0.48699999 7
4.1900001 1.3380001 -0.43700001 6
4.3839998 1.402 -0.384 4
4.5739999 1.467 -0.32600001 3
4.796 1.543 -0.264 3
5.039 1.626 -0.19499999 4
0 0 0 50
4.1820002 1.373 -0.44 6
4.3660002 1.436 -0.38699999 5
4.5710001 1.508 -0.33000001 4
4.7930002 1.585 -0.26699999 4
5.026 1.6670001 -0.198 5
4.0229998 1.357 -0.49399999 8
4.1719999 1.409 -0.442 6
4.3699999 1.479 -0.391 5
4.573 1.55 -0.33399999 5
4.7880001 1.627 -0.271 4
5.0320001 1.715 -0.20299999 5
4.02 1.3940001 -0.49700001 8
4.1680002 1.446 -0.44600001 6
4.3790002 1.522 -0.396 5
4.5669999 1.59 -0.33700001 4
4.7839999 1.67 -0.27500001 4
5.0240002 1.758 -0.206 5
4.0029998 1.426 -0.5 7
4.1630001 1.484 -0.44999999 6
4.3660002 1.558 -0.39899999 4
4.553 1.628 -0.34099999 4
4.77 1.709 -0.278 4
5.02 1.804 -0.20999999 4
4.0050001 1.465 -0.50400001 8
0 0 0 50
4.3569999 1.596 -0.403 4
4.5539999 1.671 -0.345 4
4.7719998 1.755 -0.28200001 4
5.0089998 1.846 -0.214 4
3.983 1.495 -0.50599998 7
4.1539998 1.559 -0.458 6
4.3509998 1.635 -0.40599999 4
4.5430002 1.71 -0.34799999 4
4.763 1.796 -0.28600001 4
5.0050001 1.891 -0.21799999 4
3.974 1.529 -0.50999999 7
4.1430001 1.595 -0.461 6
4.3429999 1.673 -0.41 4
4.539 1.751 -0.35299999 4
4.7579999 1.839 -0.28999999 4
4.993 1.934 -0.222 4
3.9630001 1.563 -0.51300001 7
4.131 1.63 -0.46399999 6
0 0 0 50
4.533 1.7920001 -0.35699999 4
4.7480001 1.8789999 -0.294 4
4.9949999 1.9809999 -0.226 4
3.9630001 1.601 -0.51800001 7
4.1279998 1.668 -0.46900001 6
4.3169999 1.745 -0.417 6
4.5300002 1.8329999 -0.361 4
4.743 1.9220001 -0.29800001 4
4.9790001 2.0209999 -0.23 4
3.944 1.632 -0.51999998 5
4.1259999 1.707 -0.47299999 7
4.3099999 1.784 -0.421 6
4.5190001 1.872 -0.36500001 4
4.7340002 1.964 -0.30199999 4
4.9679999 2.0639999 -0.234 4
3.9449999 1.671 -0.52499998 7
4.1209998 1.745 -0.47799999 7
4.303 1.822 -0.42500001 5
4.5100002 1.9119999 -0.36899999 4
4.7280002 2.006 -0.30599999 4
4.96 2.108 -0.23800001 4
0 0 0 50
4.1139998 1.7819999 -0.48199999 6
4.3060002 1.8660001 -0.43000001 4
4.5009999 1.952 -0.373 4
4.7220001 2.05 -0.31099999 4
4.9559999 2.154 -0.242 3
3.924 1.74 -0.53299999 7
4.0999999 1.817 -0.48500001 6
4.2880001 1.9 -0.43399999 4
4.4949999 1.993 -0.377 4
4.704 2.0869999 -0.315 4
4.9460001 2.198 -0.24699999 4
3.9159999 1.775 -0.537 7
4.0910001 1.853 -0.48899999 6
4.2859998 1.941 -0.43799999 4
4.4860001 2.0320001 -0.38100001 4
4.6950002 2.1289999 -0.31900001 4
4.9390001 2.2420001 -0.25099999 3
3.908 1.811 -0.54100001 7
4.086 1.891 -0.49399999 6
4.2820001 1.982 -0.44299999 5
4.4780002 2.072 -0.38600001 5
4.6989999 2.1760001 -0.324 4
4.9299998 2.286 -0.255 4
3.9100001 1.85 -0.546 7
4.092 1.934 -0.5 4
0 0 0 50
4.4699998 2.1129999 -0.38999999 4
4.6799998 2.2130001 -0.32699999 3
4.9219999 2.3299999 -0.25999999 3
3.8900001 1.88 -0.54900002 6
4.0630002 1.961 -0.50199997 5
4.2610002 2.056 -0.45100001 5
4.4569998 2.1500001 -0.39399999 4
4.6760001 2.2579999 -0.33199999 3
4.9159999 2.3759999 -0.264 4
3.8789999 1.914 -0.55299997 5
4.0739999 2.0079999 -0.50800002 4
4.2509999 2.0940001 -0.45500001 4
4.448 2.1900001 -0.398 4
4.6659999 2.2980001 -0.336 4
4.9000001 2.415 -0.26800001 4
3.881 1.954 -0.55800003 7
4.0650001 2.0439999 -0.51200002 4
4.2340002 2.1270001 -0.458 6
4.4460001 2.233 -0.403 5
4.6620002 2.342 -0.34099999 4
4.8959999 2.4619999 -0.273 5
3.869 1.987 -0.56199998 6
4.0380001 2.0710001 -0.514 5
4.2319999 2.1689999 -0.463 5
0 0 0 50
4.6469998 2.382 -0.345 4
4.8850002 2.5050001 -0.27700001 4
3.8570001 2.02 -0.565 6
4.0510001 2.119 -0.52100003 5
4.2329998 2.2119999 -0.46900001 5
4.4260001 2.312 -0.41100001 4
4.6399999 2.4230001 -0.34900001 4
4.8829999 2.552 -0.28099999 4
3.8559999 2.059 -0.57099998 7
4.0380001 2.1530001 -0.52499998 5
4.2210002 2.2479999 -0.472 5
4.414 2.349 -0.41499999 4
4.6339998 2.4660001 -0.35299999 4
4.8709998 2.5940001 -0.285 5
3.8399999 2.0899999 -0.574 7
4.0209999 2.1849999 -0.52700001 6
4.211 2.2850001 -0.47600001 5
4.4109998 2.392 -0.419 5
4.6209998 2.5050001 -0.35699999 4
4.8569999 2.6340001 -0.289 4
3.835 2.1259999 -0.57800001 6
4.026 2.2279999 -0.53299999 5
4.2020001 2.322 -0.47999999 4
4.4000001 2.4300001 -0.42300001 5
4.619 2.55 -0.361 4
0 0 0 50
3.8529999 2.175 -0.58600003 5
4.0159998 2.263 -0.537 5
4.1890001 2.3570001 -0.484 5
4.3930001 2.4690001 -0.42699999 4
4.6139998 2.5929999 -0.366 4
4.8540001 2.7279999 -0.29800001 4
3.823 2.197 -0.58700001 6
4.006 2.2969999 -0.54100001 5
4.1880002 2.398 -0.48800001 5
4.3889999 2.51 -0.43200001 5
4.6059999 2.6329999 -0.37 4
4.8509998 2.7739999 -0.30199999 4
3.8169999 2.2320001 -0.59100002 6
0 0 0 50
4.1789999 2.434 -0.49200001 4
4.3779998 2.5469999 -0.435 5
4.598 2.674 -0.373 4
4.8509998 2.822 -0.30599999 4
3.8280001 2.277 -0.59799999 5
3.9849999 2.365 -0.54799998 5
4.1669998 2.4679999 -0.495 5
4.3759999 2.5899999 -0.44 4
4.599 2.72 -0.37799999 4
4.8540001 2.8710001 -0.31099999 5
3.8069999 2.302 -0.59899998 7
3.9849999 2.405 -0.55199999 5
4.164 2.5079999 -0.49900001 5
4.368 2.628 -0.44299999 5
4.5879998 2.7579999 -0.38100001 4
4.868 2.9260001 -0.31600001 4
3.79 2.3299999 -0.602 6
3.9760001 2.438 -0.55599999 10
0 0 0 50
4.3610001 2.6659999 -0.447 4
4.5939999 2.8069999 -0.38600001 4
4.8740001 2.977 -0.31999999 4
3.796 2.372 -0.60699999 5
3.967 2.4719999 -0.55900002 5
4.152 2.5829999 -0.50700003 4
4.3559999 2.7060001 -0.45100001 4
4.592 2.8510001 -0.38999999 4
4.8829999 3.0309999 -0.32499999 5
3.7820001 2.4000001 -0.60900003 5
3.97 2.513 -0.56400001 4
4.1339998 2.612 -0.509 4
4.3470001 2.743 -0.454 4
4.592 2.895 -0.39399999 5
4.8959999 3.086 -0.329 4
3.7809999 2.437 -0.61400002 5
3.9560001 2.543 -0.56599998 5
4.1399999 2.6559999 -0.514 5
4.3439999 2.783 -0.45699999 4
4.5840001 2.934 -0.39700001 4
4.8909998 3.1289999 -0.33199999 3
3.7709999 2.467 -0.616 6
3.947 2.576 -0.56900001 6
0 0 0 50
4.3410001 2.822 -0.461 3
4.592 2.983 -0.40099999 4
4.888 3.174 -0.33500001 4
3.7809999 2.5109999 -0.62300003 5
3.9519999 2.6170001 -0.574 5
4.1209998 2.723 -0.51899999 5
4.329 2.855 -0.463 4
4.585 3.0209999 -0.40400001 4
4.881 3.2149999 -0.338 3
3.7720001 2.5409999 -0.625 4
3.9449999 2.6500001 -0.57700002 4
4.1220002 2.7620001 -0.523 7
4.322 2.892 -0.46599999 3
4.5830002 3.063 -0.40700001 3
4.881 3.2609999 -0.34099999 3
3.7639999 2.5710001 -0.62800002 4
3.9400001 2.684 -0.57999998 5
4.1149998 2.7969999 -0.52600002 5
4.322 2.9319999 -0.46900001 3
4.5739999 3.0999999 -0.40900001 4
0 0 0 50
3.7620001 2.605 -0.63099998 5
3.928 2.7119999 -0.58200002 6
4.1110001 2.8310001 -0.528 5
4.3140001 2.9660001 -0.47099999 4
4.5749998 3.142 -0.412 4
4.8829999 3.352 -0.347 1
3.7609999 2.6389999 -0.634 6
3.9260001 2.747 -0.58399999 5
4.1139998 2.8699999 -0.53200001 5
4.3140001 3.0050001 -0.47400001 4
4.5609999 3.1730001 -0.41299999 4
4.875 3.3900001 -0.34900001 1
3.7520001 2.6659999 -0.63599998 6
3.928 2.783 -0.588 5
4.105 2.901 -0.53399998 5
4.316 3.0439999 -0.477 4
4.5640001 3.2149999 -0.41600001 4
4.8730001 3.431 -0.35100001 1
3.7509999 2.6989999 -0.639 5
3.9200001 2.812 -0.58999997 5
4.1100001 2.941 -0.537 4
4.3109999 3.0780001 -0.479 5
4.5570002 3.2490001 -0.417 3
4.868 3.4690001 -0.352 1
3.75 2.7309999 -0.64099997 5
0 0 0 50
4.0999999 2.9679999 -0.53799999 4
4.3189998 3.1199999 -0.48199999 4
4.5560002 3.2869999 -0.419 3
4.8520002 3.4990001 -0.35299999 1
3.743 2.757 -0.64300001 5
3.911 2.8710001 -0.59299999 4
4.1040001 3.0039999 -0.54000002 4
4.3109999 3.1489999 -0.48199999 3
4.572 3.336 -0.42199999 0
4.9109998 3.5810001 -0.35800001 1
3.744 2.7880001 -0.64499998 5
3.915 2.905 -0.59600002 5
4.1009998 3.0350001 -0.542 5
4.3150001 3.187 -0.48500001 4
4.566 3.368 -0.42300001 4
4.9109998 3.6199999 -0.36000001 1
3.7420001 2.8169999 -0.64700001 6
3.9100001 2.9330001 -0.597 6
4.0929999 3.062 -0.542 5
4.3130002 3.22 -0.486 5
4.5830002 3.4159999 -0.426 1
0 0 0 50
3.7409999 2.8440001 -0.64899999 6
3.914 2.9649999 -0.59899998 5
4.098 3.096 -0.54500002 5
4.3169999 3.2550001 -0.48699999 4
4.552 3.428 -0.42399999 3
4.9169998 3.7 -0.361 2
3.734 2.8670001 -0.64899999 6
3.9119999 2.9920001 -0.60000002 5
4.1009998 3.128 -0.546 4
4.323 3.29 -0.48899999 4
4.5570002 3.464 -0.42500001 1
4.8390002 3.6760001 -0.35600001 1
3.74 2.8970001 -0.65200001 6
3.911 3.0190001 -0.60100001 4
4.1020002 3.1570001 -0.54699999 4
4.3169999 3.316 -0.48899999 4
4.559 3.497 -0.42500001 1
4.8150001 3.691 -0.354 1
3.743 2.925 -0.653 6
3.915 3.0480001 -0.602 5
4.0999999 3.1830001 -0.54699999 4
0 0 0 50
4.5640001 3.5309999 -0.426 1
4.829 3.733 -0.35499999 1
3.743 2.948 -0.653 5
3.918 3.075 -0.60299999 4
4.1069999 3.214 -0.54900002 4
4.329 3.381 -0.491 3
4.5650001 3.5599999 -0.426 1
4.8369999 3.77 -0.35499999 1
3.7460001 2.973 -0.65499997 5
3.915 3.096 -0.60299999 5
4.1069999 3.2390001 -0.54900002 5
4.3369999 3.4130001 -0.491 1
4.5650001 3.5869999 -0.42500001 1
4.835 3.7969999 -0.354 1
3.7490001 2.997 -0.65499997 5
3.9159999 3.119 -0.60299999 3
4.1139998 3.267 -0.54900002 3
4.3340001 3.4349999 -0.491 1
4.573 3.619 -0.42500001 1
4.8429999 3.8299999 -0.354 1
3.75 3.017 -0.65499997 5
3.915 3.1389999 -0.60299999 4
0 0 0 50
4.3400002 3.4619999 -0.49000001 1
4.5799999 3.648 -0.42500001 1
4.8540001 3.8640001 -0.35299999 1
