# .PCD v0.7 - Point Cloud Data file format
VERSION 0.7
FIELDS x y z intensity
SIZE 4 4 4 4
TYPE F F F F
COUNT 1 1 1 1
WIDTH 1630
HEIGHT 1
VIEWPOINT 0 0 0 1 0 0 0
POINTS 1630
DATA ascii
3.5280001 0.52600002 -0.60600001 5
3.6440001 0.53799999 -0.56800002 5
3.7679999 0.551 -0.528 6
0 0 0 50
3.29 0.47 -0.671 4
3.404 0.48199999 -0.639 5
3.506 0.491 -0.602 5
3.648 0.50599998 -0.56900001 5
3.766 0.51800001 -0.528 8
3.184 0.43200001 -0.70200002 5
3.283 0.44 -0.67000002 4
3.404 0.45100001 -0.63999999 4
3.5050001 0.46000001 -0.60299999 5
3.635 0.472 -0.56699997 5
3.7609999 0.48300001 -0.528 7
3.1849999 0.403 -0.70200002 4
3.2880001 0.41100001 -0.671 4
3.4070001 0.421 -0.64099997 4
3.4979999 0.428 -0.602 5
3.6340001 0.43900001 -0.56800002 6
3.7579999 0.449 -0.528 7
3.181 0.375 -0.70200002 5
3.283 0.382 -0.671 4
3.369 0.38699999 -0.634 4
3.5009999 0.39700001 -0.60299999 5
3.619 0.405 -0.56599998 7
3.7550001 0.41499999 -0.528 8
3.1800001 0.34599999 -0.70200002 5
3.2709999 0.35100001 -0.66900003 4
3.3870001 0.359 -0.63800001 4
3.4909999 0.36500001 -0.60100001 5
3.618 0.373 -0.56599998 6
3.7420001 0.38100001 -0.52700001 7
0 0 0 50
3.2579999 0.32100001 -0.66600001 5
3.378 0.32800001 -0.63599998 5
3.4879999 0.33399999 -0.60100001 6
3.6159999 0.34099999 -0.56599998 6
3.734 0.347 -0.52600002 7
3.177 0.28999999 -0.70200002 4
3.283 0.294 -0.671 4
3.381 0.29800001 -0.63700002 5
3.487 0.303 -0.60100001 5
3.6110001 0.308 -0.56599998 6
3.7349999 0.31400001 -0.52700001 7
3.174 0.26100001 -0.70099998 5
3.2679999 0.264 -0.66900003 4
3.345 0.266 -0.63099998 3
3.497 0.27200001 -0.60399997 5
3.6059999 0.27599999 -0.565 6
3.74 0.28099999 -0.528 6
3.1700001 0.233 -0.69999999 5
3.2609999 0.235 -0.66799998 4
3.382 0.23800001 -0.63800001 5
0 0 0 50
3.619 0.245 -0.56800002 5
3.7349999 0.248 -0.528 6
3.1670001 0.205 -0.69999999 5
3.2590001 0.206 -0.667 5
3.375 0.20900001 -0.63700002 5
3.4860001 0.20999999 -0.602 5
3.5999999 0.212 -0.565 5
3.7309999 0.215 -0.528 6
3.1670001 0.177 -0.69999999 5
3.2609999 0.178 -0.66799998 5
3.3789999 0.17900001 -0.63800001 5
3.4860001 0.18000001 -0.60299999 5
3.605 0.18099999 -0.56599998 5
3.7260001 0.182 -0.52700001 6
3.1630001 0.149 -0.699 5
3.2509999 0.149 -0.66600001 5
0 0 0 50
3.473 0.148 -0.60100001 5
3.5999999 0.149 -0.56599998 5
3.7290001 0.149 -0.528 6
3.165 0.121 -0.69999999 5
3.256 0.12 -0.667 4
3.306 0.117 -0.625 3
3.4579999 0.117 -0.59799999 4
3.5910001 0.117 -0.565 5
3.721 0.116 -0.52700001 6
3.1600001 0.093999997 -0.699 4
3.2509999 0.092 -0.667 4
3.3670001 0.090000004 -0.63599998 4
3.471 0.088 -0.60100001 5
3.5969999 0.086000003 -0.56599998 5
3.7090001 0.082999997 -0.52600002 6
3.1600001 0.066 -0.69999999 5
3.253 0.063000001 -0.667 4
3.3299999 0.059999999 -0.63 4
3.473 0.057 -0.60100001 5
3.592 0.054000001 -0.565 5
3.7119999 0.050999999 -0.52700001 5
0 0 0 50
3.25 0.035 -0.667 4
3.3510001 0.030999999 -0.634 4
3.4719999 0.027000001 -0.60100001 5
3.5840001 0.022 -0.56400001 5
3.7130001 0.017999999 -0.52700001 6
3.152 0.0099999998 -0.69800001 5
3.2449999 0.0060000001 -0.66600001 4
3.362 0.001 -0.63599998 4
3.474 -0.003 -0.602 5
3.5799999 -0.0080000004 -0.56400001 5
3.714 -0.014 -0.52700001 7
3.148 -0.016000001 -0.69700003 6
3.2219999 -0.021 -0.66100001 3
3.362 -0.027000001 -0.63599998 4
3.47 -0.033 -0.60100001 5
3.5840001 -0.039999999 -0.565 5
3.71 -0.046999998 -0.52700001 5
3.1470001 -0.044 -0.69700003 4
3.2390001 -0.050000001 -0.66500002 4
3.358 -0.057 -0.63599998 4
3.4619999 -0.064000003 -0.60000002 5
3.5780001 -0.071000002 -0.56400001 5
3.7030001 -0.079000004 -0.52600002 6
3.145 -0.071000002 -0.69700003 5
3.233 -0.078000002 -0.66399997 4
0 0 0 50
3.4619999 -0.093999997 -0.60000002 5
3.573 -0.102 -0.56300002 5
3.6900001 -0.111 -0.52399999 6
3.1400001 -0.098999999 -0.69599998 7
3.237 -0.106 -0.66500002 4
3.346 -0.115 -0.634 5
3.4519999 -0.124 -0.59899998 6
3.569 -0.134 -0.56300002 5
3.6930001 -0.14399999 -0.52499998 6
3.1329999 -0.126 -0.69499999 5
3.233 -0.13500001 -0.66399997 4
3.3399999 -0.14399999 -0.63300002 5
3.45 -0.154 -0.59899998 7
3.5650001 -0.16500001 -0.56199998 5
3.684 -0.176 -0.52399999 7
3.128 -0.153 -0.69400001 8
3.2290001 -0.163 -0.66399997 5
3.3340001 -0.17299999 -0.63099998 5
3.437 -0.184 -0.59600002 6
3.5650001 -0.19599999 -0.56199998 5
3.6819999 -0.208 -0.523 6
3.1329999 -0.18099999 -0.69499999 6
3.223 -0.191 -0.66299999 4
3.3310001 -0.20200001 -0.63099998 5
3.4400001 -0.214 -0.597 5
3.559 -0.227 -0.56099999 5
3.6819999 -0.241 -0.523 6
3.128 -0.235 -0.69400001 5
3.2179999 -0.24699999 -0.662 4
3.325 -0.25999999 -0.63 5
3.4330001 -0.27399999 -0.59600002 5
3.5450001 -0.28799999 -0.55900002 6
3.6670001 -0.303 -0.52100003 8
3.1229999 -0.26199999 -0.69300002 5
3.21 -0.27399999 -0.66000003 5
3.3110001 -0.28799999 -0.62800002 5
3.4389999 -0.30399999 -0.597 5
3.5469999 -0.31900001 -0.56 6
3.6589999 -0.33500001 -0.51999998 8
3.1159999 -0.289 -0.69199997 7
3.2060001 -0.301 -0.66000003 5
3.319 -0.317 -0.62900001 4
0 0 0 50
3.543 -0.34900001 -0.55900002 6
3.6530001 -0.366 -0.51899999 7
3.1199999 -0.31600001 -0.69300002 6
3.2060001 -0.329 -0.66000003 5
3.3050001 -0.34400001 -0.62699997 5
3.414 -0.361 -0.59299999 5
3.527 -0.37799999 -0.55599999 6
3.652 -0.398 -0.51899999 7
3.112 -0.34200001 -0.69099998 7
3.1960001 -0.35600001 -0.65799999 5
3.306 -0.373 -0.62699997 5
3.415 -0.391 -0.59299999 7
3.5250001 -0.40900001 -0.55599999 9
3.652 -0.42899999 -0.51899999 7
3.109 -0.36899999 -0.69099998 6
3.184 -0.382 -0.65499997 6
3.3 -0.40099999 -0.62599999 5
3.418 -0.421 -0.59299999 6
3.53 -0.44 -0.55699998 6
3.6600001 -0.46200001 -0.51999998 7
3.102 -0.39500001 -0.68900001 8
0 0 0 50
3.309 -0.43099999 -0.62800002 5
3.415 -0.44999999 -0.59299999 6
3.533 -0.47099999 -0.55699998 6
3.658 -0.49399999 -0.51899999 7
3.109 -0.42300001 -0.69099998 5
3.197 -0.43900001 -0.65799999 5
3.3050001 -0.45899999 -0.62699997 5
3.4170001 -0.47999999 -0.59299999 6
3.5309999 -0.50099999 -0.55699998 6
3.6500001 -0.52399999 -0.51800001 7
3.1070001 -0.449 -0.69099998 6
3.1919999 -0.46599999 -0.65799999 7
3.3099999 -0.48800001 -0.62800002 5
3.415 -0.509 -0.59299999 6
3.5309999 -0.53200001 -0.55699998 6
3.6489999 -0.55599999 -0.51800001 7
3.1059999 -0.47600001 -0.69099998 6
3.1919999 -0.49399999 -0.65799999 5
3.302 -0.51599997 -0.62699997 5
3.4130001 -0.53799999 -0.59299999 5
3.53 -0.56300002 -0.55699998 6
3.6500001 -0.588 -0.51800001 9
0 0 0 50
3.1919999 -0.52200001 -0.65799999 6
3.303 -0.54500002 -0.62699997 5
3.4130001 -0.56800002 -0.59299999 6
3.5320001 -0.59399998 -0.55699998 6
3.651 -0.62 -0.51800001 7
3.098 -0.52899998 -0.69 7
3.194 -0.55000001 -0.65899998 5
3.303 -0.574 -0.62699997 5
3.4119999 -0.59799999 -0.59299999 6
3.5209999 -0.62300003 -0.55500001 5
3.651 -0.65200001 -0.51800001 8
3.096 -0.55599999 -0.69 6
3.1889999 -0.57700002 -0.65799999 5
3.2939999 -0.60100001 -0.62599999 6
3.402 -0.62599999 -0.59100002 6
3.5209999 -0.65399998 -0.55599999 6
3.648 -0.68400002 -0.51800001 7
3.0899999 -0.58200002 -0.68900001 9
3.184 -0.60399997 -0.65700001 6
3.289 -0.62900001 -0.625 6
3.4030001 -0.65600002 -0.59200001 6
3.517 -0.68400002 -0.55500001 7
3.6370001 -0.713 -0.51599997 9
3.0940001 -0.61000001 -0.69 5
3.1800001 -0.63099998 -0.65700001 5
3.2939999 -0.65799999 -0.62599999 5
3.398 -0.68400002 -0.59100002 6
0 0 0 50
3.6389999 -0.745 -0.51700002 8
3.0869999 -0.63499999 -0.68900001 7
3.177 -0.65799999 -0.65700001 5
3.2869999 -0.68599999 -0.625 6
3.395 -0.713 -0.59100002 6
3.5079999 -0.74299997 -0.55400002 7
3.6400001 -0.77700001 -0.51700002 7
3.0799999 -0.66000003 -0.68800002 6
3.1760001 -0.68599999 -0.65700001 5
3.2839999 -0.713 -0.625 5
3.3940001 -0.74199998 -0.59100002 6
3.5090001 -0.773 -0.55400002 6
3.6240001 -0.80500001 -0.51499999 12
3.075 -0.68599999 -0.68699998 6
3.1700001 -0.71200001 -0.65600002 6
3.273 -0.73900002 -0.62400001 7
3.3870001 -0.76999998 -0.58999997 6
3.5079999 -0.80400002 -0.55500001 6
3.622 -0.83600003 -0.51499999 7
3.0780001 -0.71399999 -0.68900001 6
3.1700001 -0.73900002 -0.65700001 5
3.273 -0.76800001 -0.62400001 6
3.382 -0.79799998 -0.58999997 6
3.5 -0.83200002 -0.55400002 6
0 0 0 50
3.0699999 -0.73799998 -0.68800002 5
3.1670001 -0.76599997 -0.65700001 7
3.2679999 -0.79500002 -0.62400001 7
3.378 -0.82700002 -0.58899999 6
3.5039999 -0.86299998 -0.55500001 7
3.6199999 -0.898 -0.51499999 8
3.079 -0.76700002 -0.69 6
3.1589999 -0.79100001 -0.65600002 6
3.2609999 -0.82099998 -0.62300003 7
3.3800001 -0.85600001 -0.58999997 6
3.483 -0.88800001 -0.55199999 8
3.6229999 -0.93000001 -0.51599997 9
3.0610001 -0.78899997 -0.68699998 6
3.1619999 -0.81900001 -0.65700001 6
3.2579999 -0.84899998 -0.62300003 7
3.3759999 -0.884 -0.58999997 6
3.494 -0.921 -0.55400002 7
3.608 -0.95700002 -0.514 9
3.0650001 -0.81599998 -0.68900001 6
3.1559999 -0.84500003 -0.65700001 5
3.2539999 -0.875 -0.62300003 7
0 0 0 50
3.497 -0.95200002 -0.55500001 6
3.6110001 -0.98900002 -0.51499999 10
3.059 -0.84100002 -0.68900001 7
3.148 -0.86900002 -0.65600002 8
3.25 -0.90200001 -0.62300003 7
3.368 -0.94 -0.58999997 6
3.4790001 -0.97600001 -0.55299997 7
3.5999999 -1.017 -0.514 9
3.053 -0.866 -0.68800002 11
3.145 -0.89600003 -0.65600002 6
3.2509999 -0.93000001 -0.62400001 7
3.365 -0.96700001 -0.58999997 8
3.484 -1.007 -0.55400002 6
0 0 0 50
3.05 -0.89099997 -0.68900001 8
3.1389999 -0.921 -0.65600002 6
3.243 -0.95499998 -0.62400001 9
3.365 -0.99599999 -0.59100002 6
3.4679999 -1.0319999 -0.55299997 10
3.6040001 -1.079 -0.51599997 9
3.0420001 -0.91399997 -0.68800002 8
3.141 -0.94800001 -0.65799999 7
3.2420001 -0.98199999 -0.62400001 8
3.358 -1.022 -0.59100002 6
3.4560001 -1.058 -0.55199999 8
3.5880001 -1.104 -0.514 8
3.043 -0.94 -0.69 10
3.1359999 -0.97299999 -0.65799999 6
3.25 -1.012 -0.62699997 6
3.3529999 -1.049 -0.59100002 8
3.454 -1.087 -0.55199999 10
3.576 -1.131 -0.514 8
3.04 -0.96499997 -0.69 7
3.1270001 -0.99699998 -0.65700001 7
0 0 0 50
3.352 -1.077 -0.59200001 7
3.454 -1.115 -0.55299997 7
3.5840001 -1.164 -0.51599997 10
3.04 -0.991 -0.69199997 6
3.128 -1.023 -0.65899998 6
3.2279999 -1.0599999 -0.625 8
3.345 -1.103 -0.59200001 6
3.454 -1.1440001 -0.55500001 8
3.5769999 -1.191 -0.51599997 9
3.036 -1.015 -0.69199997 6
3.1129999 -1.044 -0.65700001 7
3.2309999 -1.0880001 -0.62699997 6
3.335 -1.128 -0.59200001 7
3.4389999 -1.168 -0.55400002 11
3.5769999 -1.221 -0.51700002 7
3.0220001 -1.036 -0.69099998 7
3.1110001 -1.0700001 -0.65799999 6
3.2219999 -1.112 -0.62699997 7
3.3329999 -1.154 -0.59299999 7
3.4460001 -1.199 -0.55599999 8
3.5699999 -1.248 -0.51800001 8
3.0209999 -1.0599999 -0.69300002 6
3.1140001 -1.096 -0.66100001 5
3.2179999 -1.137 -0.62800002 6
3.335 -1.182 -0.59500003 7
3.437 -1.224 -0.55599999 7
0 0 0 50
3.013 -1.082 -0.69300002 6
3.105 -1.119 -0.66100001 6
3.211 -1.161 -0.62900001 7
3.3210001 -1.205 -0.59399998 9
3.4389999 -1.253 -0.55800003 8
3.55 -1.299 -0.51800001 8
2.997 -1.102 -0.69099998 9
3.0929999 -1.14 -0.66000003 10
3.2090001 -1.186 -0.63 7
3.3239999 -1.233 -0.597 7
3.428 -1.277 -0.55800003 9
3.5409999 -1.324 -0.51800001 8
2.9979999 -1.127 -0.69300002 9
3.109 -1.171 -0.66500002 5
3.1960001 -1.207 -0.63 7
3.3050001 -1.252 -0.59500003 8
3.427 -1.304 -0.56 9
3.539 -1.352 -0.51999998 9
2.9979999 -1.15 -0.69499999 9
3.086 -1.187 -0.66299999 7
3.191 -1.2309999 -0.63099998 7
3.306 -1.279 -0.597 8
3.425 -1.33 -0.56199998 7
3.5369999 -1.3789999 -0.52100003 8
2.9960001 -1.174 -0.69700003 6
3.0899999 -1.2130001 -0.66600001 5
3.187 -1.255 -0.63200003 7
3.2980001 -1.302 -0.59799999 6
3.414 -1.352 -0.56199998 7
3.5179999 -1.399 -0.52100003 9
2.987 -1.194 -0.69800001 7
0 0 0 50
3.184 -1.278 -0.634 6
3.3 -1.329 -0.60100001 6
3.4089999 -1.377 -0.56300002 8
3.5209999 -1.428 -0.523 9
2.983 -1.216 -0.699 6
3.0710001 -1.2539999 -0.667 6
3.1830001 -1.302 -0.63599998 6
3.2869999 -1.349 -0.60100001 6
3.3970001 -1.398 -0.56400001 8
3.51 -1.45 -0.52399999 8
2.9749999 -1.235 -0.69999999 6
3.069 -1.276 -0.66900003 6
3.177 -1.324 -0.63800001 6
3.2809999 -1.3710001 -0.602 7
3.3940001 -1.423 -0.56599998 8
3.5009999 -1.473 -0.52499998 9
2.9660001 -1.2539999 -0.70099998 6
3.062 -1.2970001 -0.67000002 5
3.158 -1.34 -0.63599998 7
3.266 -1.3890001 -0.602 9
3.3840001 -1.444 -0.56699997 7
3.4960001 -1.4960001 -0.52700001 8
2.964 -1.276 -0.70300001 6
3.0480001 -1.314 -0.67000002 6
3.168 -1.368 -0.64099997 6
3.2620001 -1.411 -0.60399997 7
3.3770001 -1.465 -0.56800002 7
3.4909999 -1.5190001 -0.52899998 9
2.9489999 -1.291 -0.70300001 8
3.05 -1.337 -0.67299998 5
3.141 -1.3789999 -0.639 7
3.2509999 -1.4299999 -0.60500002 8
0 0 0 50
3.483 -1.541 -0.53100002 8
2.9400001 -1.309 -0.704 6
3.0380001 -1.354 -0.67299998 6
3.151 -1.406 -0.64399999 6
3.2460001 -1.451 -0.60699999 7
3.359 -1.505 -0.57099998 9
3.4719999 -1.5599999 -0.53200001 8
2.9400001 -1.33 -0.70700002 6
3.0250001 -1.37 -0.67400002 6
3.1329999 -1.42 -0.64300001 7
3.237 -1.47 -0.60900003 6
3.349 -1.524 -0.57300001 8
3.461 -1.579 -0.53299999 9
2.934 -1.349 -0.70899999 6
3.026 -1.392 -0.67799997 7
3.122 -1.437 -0.64399999 7
3.221 -1.485 -0.60900003 7
3.349 -1.5470001 -0.57599998 7
3.4549999 -1.6 -0.53600001 10
2.918 -1.362 -0.708 9
3.0150001 -1.408 -0.67799997 5
3.122 -1.459 -0.648 7
3.2219999 -1.507 -0.61199999 13
3.335 -1.563 -0.57700002 8
3.4460001 -1.619 -0.537 9
2.921 -1.383 -0.713 7
3.0050001 -1.423 -0.68000001 6
3.1070001 -1.472 -0.648 7
3.22 -1.527 -0.61500001 8
3.3299999 -1.582 -0.579 7
3.438 -1.637 -0.54000002 8
2.908 -1.396 -0.713 8
2.9979999 -1.439 -0.68099999 6
3.1070001 -1.493 -0.65200001 7
3.2060001 -1.541 -0.616 7
3.3150001 -1.596 -0.57999998 8
3.4289999 -1.654 -0.542 8
2.898 -1.41 -0.71399999 6
2.9860001 -1.4529999 -0.68199998 6
3.089 -1.503 -0.65100002 7
3.2 -1.558 -0.61900002 7
3.3080001 -1.613 -0.583 8
3.4230001 -1.6720001 -0.54400003 8
2.8859999 -1.423 -0.71499997 6
2.9820001 -1.469 -0.685 7
3.086 -1.521 -0.65399998 7
3.1930001 -1.575 -0.62099999 7
0 0 0 50
3.4159999 -1.689 -0.54699999 8
2.8829999 -1.439 -0.71799999 7
2.9779999 -1.485 -0.68800002 6
3.085 -1.538 -0.65799999 6
3.1860001 -1.589 -0.62300003 7
3.2909999 -1.6440001 -0.58700001 7
3.4000001 -1.7 -0.54799998 7
2.8770001 -1.4529999 -0.72100002 6
2.964 -1.4960001 -0.68900001 6
3.0680001 -1.548 -0.65799999 6
3.1689999 -1.599 -0.62400001 6
3.2869999 -1.66 -0.58999997 7
3.3900001 -1.714 -0.55000001 9
2.8759999 -1.469 -0.72399998 6
2.9389999 -1.5 -0.68699998 5
3.066 -1.564 -0.662 6
3.1619999 -1.613 -0.62699997 7
3.273 -1.67 -0.59100002 8
3.381 -1.727 -0.55199999 8
2.8599999 -1.477 -0.72399998 7
2.9660001 -1.53 -0.69700003 5
3.059 -1.576 -0.66399997 6
3.1459999 -1.6210001 -0.62699997 6
3.2620001 -1.681 -0.59299999 9
3.378 -1.742 -0.55599999 8
2.8510001 -1.487 -0.72600001 6
2.9419999 -1.533 -0.69499999 6
3.039 -1.581 -0.66399997 7
3.1389999 -1.633 -0.63 6
3.2579999 -1.6950001 -0.597 8
3.362 -1.75 -0.55699998 8
2.8410001 -1.497 -0.727 6
2.9349999 -1.544 -0.69800001 6
3.03 -1.591 -0.66500002 7
3.1289999 -1.643 -0.63200003 6
3.244 -1.7029999 -0.59799999 7
3.3499999 -1.7589999 -0.55900002 8
2.842 -1.511 -0.73100001 6
2.9260001 -1.553 -0.69999999 6
3.0009999 -1.59 -0.66299999 5
3.1270001 -1.655 -0.63499999 6
0 0 0 50
3.349 -1.773 -0.56300002 9
2.826 -1.515 -0.73100001 7
2.9200001 -1.562 -0.70200002 6
3.0139999 -1.61 -0.67000002 7
3.128 -1.669 -0.639 7
3.23 -1.723 -0.60299999 7
3.336 -1.779 -0.565 8
2.8180001 -1.523 -0.73299998 6
2.908 -1.568 -0.70300001 7
3.006 -1.618 -0.67199999 7
3.1140001 -1.674 -0.64099997 7
3.223 -1.7309999 -0.60600001 7
3.316 -1.781 -0.56599998 6
2.8150001 -1.533 -0.73699999 5
2.901 -1.576 -0.70599997 6
3.013 -1.633 -0.67799997 6
3.1070001 -1.682 -0.64300001 7
3.2130001 -1.737 -0.60799998 7
3.3139999 -1.79 -0.56900001 8
2.803 -1.5369999 -0.73699999 7
2.898 -1.584 -0.70899999 6
3 -1.637 -0.67900002 7
3.0910001 -1.683 -0.64399999 8
3.2 -1.74 -0.60900003 9
3.309 -1.798 -0.57200003 10
2.796 -1.5420001 -0.73900002 7
2.8829999 -1.586 -0.70899999 6
2.9790001 -1.6339999 -0.67799997 6
3.0899999 -1.692 -0.64700001 8
3.197 -1.748 -0.61299998 9
3.2939999 -1.799 -0.57300001 9
2.7950001 -1.551 -0.74299997 6
2.8789999 -1.592 -0.71200001 6
2.9860001 -1.647 -0.68300003 7
3.085 -1.698 -0.64999998 7
0 0 0 50
3.2950001 -1.808 -0.57700002 9
2.7839999 -1.553 -0.74400002 9
2.8759999 -1.598 -0.71499997 7
2.987 -1.655 -0.68699998 7
3.075 -1.699 -0.65200001 7
3.181 -1.755 -0.61699998 8
3.283 -1.808 -0.579 9
2.7780001 -1.556 -0.74599999 7
2.8559999 -1.594 -0.713 7
2.974 -1.655 -0.68800002 7
3.0699999 -1.7029999 -0.65399998 7
3.1730001 -1.757 -0.61900002 7
3.277 -1.811 -0.58099997 8
2.776 -1.561 -0.74900001 7
2.8570001 -1.6 -0.71700001 8
2.964 -1.654 -0.68900001 7
3.0580001 -1.702 -0.65499997 7
3.1700001 -1.76 -0.62199998 7
3.2720001 -1.813 -0.58399999 8
2.766 -1.561 -0.74900001 7
2.8499999 -1.601 -0.71899998 7
2.9590001 -1.656 -0.69099998 7
3.0280001 -1.6900001 -0.65200001 6
3.161 -1.7589999 -0.62400001 8
3.26 -1.8099999 -0.58499998 8
2.7620001 -1.563 -0.75199997 8
2.845 -1.603 -0.72100002 7
2.947 -1.653 -0.69199997 7
3.05 -1.705 -0.66000003 7
3.154 -1.758 -0.625 8
3.263 -1.8150001 -0.58899999 9
2.7539999 -1.562 -0.75300002 8
2.839 -1.602 -0.722 7
2.9419999 -1.653 -0.69300002 7
0 0 0 0
3.1459999 -1.756 -0.62699997 8
3.2509999 -1.8099999 -0.58999997 8
2.753 -1.563 -0.755 8
2.8369999 -1.603 -0.72500002 7
2.9389999 -1.653 -0.69599998 7
3.026 -1.696 -0.66100001 6
0 0 0 50
3.2490001 -1.8099999 -0.59299999 9
2.75 -1.563 -0.75700003 8
2.8399999 -1.605 -0.72799999 7
2.931 -1.649 -0.69700003 7
3.027 -1.697 -0.66399997 6
3.1400001 -1.753 -0.63200003 8
3.2409999 -1.8049999 -0.59399998 9
2.743 -1.559 -0.75800002 9
2.835 -1.603 -0.72899997 6
2.925 -1.646 -0.69800001 7
3.0220001 -1.693 -0.66500002 7
3.1300001 -1.747 -0.63200003 8
3.2390001 -1.802 -0.59600002 9
2.734 -1.554 -0.75800002 9
2.8239999 -1.596 -0.72899997 6
2.918 -1.64 -0.69800001 8
3.0239999 -1.692 -0.66799998 7
3.1300001 -1.745 -0.63499999 8
3.2390001 -1.799 -0.59899998 9
2.7349999 -1.553 -0.75999999 9
2.8239999 -1.594 -0.73100001 7
2.9089999 -1.633 -0.699 8
3.023 -1.689 -0.67000002 7
0 0 0 50
3.2360001 -1.794 -0.60000002 9
2.733 -1.549 -0.76200002 9
2.8199999 -1.589 -0.73199999 7
2.911 -1.631 -0.70099998 8
3.017 -1.682 -0.671 7
3.1240001 -1.734 -0.63800001 7
3.2290001 -1.785 -0.60100001 9
2.7290001 -1.544 -0.76300001 10
2.8139999 -1.582 -0.73299998 7
2.914 -1.628 -0.704 8
3.01 -1.674 -0.671 7
3.1210001 -1.727 -0.639 7
3.2290001 -1.78 -0.60299999 9
2.7260001 -1.538 -0.76300001 8
2.8080001 -1.574 -0.73299998 7
2.914 -1.623 -0.70499998 7
3.007 -1.666 -0.67199999 8
3.112 -1.716 -0.639 9
3.2219999 -1.7690001 -0.60299999 9
2.73 -1.535 -0.76599997 7
2.809 -1.569 -0.73400003 7
2.914 -1.617 -0.70700002 7
3.0120001 -1.6619999 -0.67500001 7
3.115 -1.711 -0.64099997 7
3.221 -1.761 -0.60500002 13
2.7260001 -1.527 -0.76599997 7
2.8069999 -1.561 -0.73500001 6
2.905 -1.605 -0.70599997 7
3.0079999 -1.652 -0.67500001 7
3.1040001 -1.696 -0.63999999 9
3.2179999 -1.75 -0.60500002 13
2.7249999 -1.5190001 -0.76700002 8
2.8080001 -1.554 -0.736 6
2.915 -1.603 -0.70899999 6
3.007 -1.643 -0.676 6
3.1059999 -1.688 -0.64099997 8
3.223 -1.743 -0.60699999 11
2.723 -1.51 -0.76700002 7
2.8080001 -1.546 -0.73699999 6
2.9059999 -1.589 -0.708 7
3.003 -1.632 -0.676 6
3.109 -1.679 -0.64200002 8
3.2160001 -1.729 -0.60699999 9
2.724 -1.502 -0.76800001 8
2.8099999 -1.538 -0.73799998 6
2.904 -1.5779999 -0.708 7
3.007 -1.624 -0.67699999 8
3.1099999 -1.67 -0.64300001 8
3.2179999 -1.7180001 -0.60799998 9
2.7190001 -1.49 -0.76700002 7
2.809 -1.527 -0.73799998 6
2.901 -1.566 -0.70700002 7
3.003 -1.61 -0.67699999 8
3.105 -1.655 -0.64300001 7
3.22 -1.706 -0.60799998 9
2.7249999 -1.483 -0.76899999 6
2.806 -1.515 -0.73699999 6
2.8970001 -1.553 -0.70700002 7
3.0050001 -1.6 -0.67699999 6
3.1110001 -1.646 -0.64399999 7
3.22 -1.694 -0.60900003 9
2.723 -1.47 -0.76800001 7
2.8099999 -1.505 -0.73799998 8
2.9000001 -1.5420001 -0.70700002 8
3.006 -1.587 -0.67699999 7
3.109 -1.631 -0.64300001 7
3.221 -1.6799999 -0.60799998 8
2.734 -1.465 -0.77100003 6
2.813 -1.495 -0.73900002 6
2.9000001 -1.529 -0.70700002 7
3.006 -1.573 -0.67699999 8
3.1199999 -1.623 -0.64499998 7
3.2219999 -1.665 -0.60799998 10
2.7290001 -1.449 -0.76899999 6
2.806 -1.477 -0.736 5
2.9030001 -1.517 -0.70700002 7
3.01 -1.561 -0.67699999 7
3.112 -1.603 -0.64300001 7
3.223 -1.65 -0.60799998 9
0 0 0 50
2.813 -1.4680001 -0.73699999 6
2.9189999 -1.511 -0.70999998 7
3.0120001 -1.5470001 -0.67699999 8
3.1140001 -1.5880001 -0.64300001 11
3.227 -1.636 -0.60799998 10
2.7360001 -1.426 -0.76899999 8
2.8180001 -1.456 -0.73799998 7
2.924 -1.498 -0.70999998 7
3.0209999 -1.536 -0.67799997 7
3.1270001 -1.5779999 -0.64399999 7
3.2279999 -1.619 -0.60699999 10
2.7360001 -1.411 -0.76700002 8
2.825 -1.444 -0.73799998 6
2.921 -1.4809999 -0.708 6
3.0190001 -1.518 -0.676 7
3.119 -1.558 -0.64200002 7
3.237 -1.6059999 -0.60799998 9
2.7409999 -1.398 -0.76700002 7
2.8280001 -1.429 -0.73799998 6
2.9030001 -1.455 -0.70200002 5
3.0220001 -1.503 -0.67500001 8
3.1359999 -1.548 -0.64399999 7
3.24 -1.589 -0.60699999 11
2.7460001 -1.385 -0.76700002 9
2.8310001 -1.415 -0.73699999 7
2.924 -1.448 -0.70599997 8
3.0320001 -1.49 -0.676 7
3.1370001 -1.53 -0.64200002 7
3.2420001 -1.5700001 -0.60600001 12
2.7449999 -1.367 -0.76499999 9
2.835 -1.4 -0.736 7
2.9400001 -1.439 -0.708 7
3.0309999 -1.471 -0.67400002 7
3.1389999 -1.512 -0.64099997 7
3.24 -1.549 -0.60399997 8
2.757 -1.357 -0.76599997 6
2.839 -1.3839999 -0.73500001 7
2.9349999 -1.418 -0.70499998 7
3.04 -1.456 -0.67400002 7
3.1459999 -1.495 -0.63999999 7
3.263 -1.54 -0.60600001 7
2.7609999 -1.341 -0.76499999 6
2.8469999 -1.369 -0.73500001 6
2.9419999 -1.402 -0.704 7
3.0439999 -1.439 -0.67299998 6
3.1530001 -1.479 -0.63999999 8
3.2609999 -1.518 -0.60399997 8
2.7679999 -1.326 -0.76499999 7
2.8440001 -1.349 -0.73199999 6
2.944 -1.3839999 -0.70200002 7
3.0510001 -1.4220001 -0.67199999 6
3.1570001 -1.46 -0.63800001 7
3.27 -1.501 -0.60299999 8
2.7679999 -1.307 -0.76200002 7
2.8599999 -1.3380001 -0.73299998 6
2.96 -1.372 -0.704 6
3.053 -1.403 -0.67000002 8
3.155 -1.438 -0.63599998 9
3.2679999 -1.478 -0.60000002 10
2.776 -1.2920001 -0.76099998 7
2.8610001 -1.319 -0.73100001 5
0 0 0 50
3.062 -1.386 -0.66900003 6
3.168 -1.4220001 -0.63499999 7
3.2780001 -1.46 -0.60000002 11
2.7850001 -1.277 -0.76099998 7
2.8740001 -1.3049999 -0.73100001 5
2.9679999 -1.334 -0.69999999 6
3.076 -1.3710001 -0.66900003 6
3.175 -1.403 -0.634 7
3.2839999 -1.4400001 -0.59799999 10
2.786 -1.257 -0.75800002 8
2.8759999 -1.285 -0.72899997 6
2.971 -1.3150001 -0.69800001 7
3.0780001 -1.349 -0.667 6
3.1760001 -1.381 -0.63099998 7
3.296 -1.4220001 -0.597 11
2.7980001 -1.242 -0.759 7
2.882 -1.266 -0.727 6
2.984 -1.298 -0.69800001 7
3.0840001 -1.33 -0.66500002 7
3.188 -1.363 -0.63099998 7
3.3010001 -1.4 -0.59500003 8
2.8039999 -1.223 -0.75700003 9
2.888 -1.247 -0.72500002 6
2.987 -1.277 -0.69499999 6
3.0899999 -1.3099999 -0.66299999 6
3.191 -1.34 -0.62800002 7
3.303 -1.377 -0.59299999 9
2.8139999 -1.207 -0.75599998 6
2.891 -1.227 -0.72299999 8
2.9990001 -1.26 -0.69499999 6
3.0969999 -1.29 -0.662 7
3.207 -1.324 -0.62800002 7
3.3139999 -1.3559999 -0.59100002 9
2.8210001 -1.188 -0.75400001 6
2.898 -1.2079999 -0.72100002 7
3.0039999 -1.24 -0.69199997 6
3.0999999 -1.267 -0.65899998 10
3.2079999 -1.3 -0.625 7
3.322 -1.335 -0.58999997 10
2.829 -1.17 -0.75300002 7
2.9070001 -1.189 -0.72000003 8
3.0079999 -1.219 -0.69 6
3.115 -1.25 -0.65899998 6
3.2190001 -1.28 -0.62400001 9
3.3310001 -1.314 -0.588 9
2.835 -1.15 -0.75099999 7
2.9170001 -1.171 -0.71899998 7
3.017 -1.199 -0.68800002 6
0 0 0 50
3.234 -1.262 -0.62300003 8
3.346 -1.294 -0.58700001 9
2.848 -1.133 -0.75 7
2.924 -1.151 -0.71700001 6
3.0190001 -1.176 -0.685 8
3.1289999 -1.2079999 -0.65499997 8
3.243 -1.24 -0.62199998 8
3.352 -1.271 -0.58499998 9
2.855 -1.113 -0.74800003 7
2.9319999 -1.131 -0.71499997 8
3.03 -1.1569999 -0.68400002 8
3.1440001 -1.189 -0.65399998 7
3.2460001 -1.216 -0.61900002 8
3.3640001 -1.249 -0.583 13
2.8629999 -1.0930001 -0.74699998 8
2.944 -1.112 -0.71399999 5
3.033 -1.1339999 -0.68099999 9
3.1440001 -1.164 -0.64999998 9
3.256 -1.194 -0.61699998 9
3.3759999 -1.227 -0.58200002 9
2.8640001 -1.0700001 -0.74299997 8
2.948 -1.09 -0.71100003 6
3.0599999 -1.12 -0.68300003 6
3.1600001 -1.145 -0.64999998 10
3.2720001 -1.174 -0.616 7
3.3859999 -1.204 -0.57999998 9
2.8859999 -1.0549999 -0.74400002 8
2.973 -1.075 -0.713 7
3.0639999 -1.097 -0.68000001 7
3.174 -1.125 -0.64899999 6
3.28 -1.152 -0.61400002 7
3.388 -1.179 -0.57599998 13
2.8800001 -1.03 -0.73900002 9
2.977 -1.053 -0.70999998 7
3.075 -1.076 -0.67900002 6
3.171 -1.098 -0.64399999 9
0 0 0 50
3.404 -1.1569999 -0.57499999 11
2.9000001 -1.013 -0.74000001 6
2.9790001 -1.029 -0.70700002 7
3.076 -1.051 -0.67500001 7
3.1860001 -1.0779999 -0.64399999 7
3.2980001 -1.105 -0.61000001 6
3.4159999 -1.1339999 -0.57300001 8
2.9000001 -0.98900002 -0.736 8
2.9879999 -1.008 -0.70499998 8
3.0899999 -1.031 -0.67400002 6
3.198 -1.056 -0.64200002 8
3.312 -1.0829999 -0.60799998 7
3.427 -1.11 -0.57099998 11
2.914 -0.97000003 -0.736 5
2.997 -0.986 -0.70300001 7
3.1010001 -1.01 -0.67299998 5
3.204 -1.0319999 -0.63999999 5
3.313 -1.057 -0.60500002 7
3.4300001 -1.084 -0.56800002 10
2.9130001 -0.94499999 -0.73100001 7
3.003 -0.963 -0.69999999 9
3.1059999 -0.98500001 -0.67000002 6
3.21 -1.008 -0.63700002 6
3.3239999 -1.033 -0.60299999 7
3.4419999 -1.0599999 -0.56599998 12
2.938 -0.92900002 -0.73299998 6
3.0220001 -0.94400001 -0.70099998 6
3.1110001 -0.96200001 -0.667 6
3.2249999 -0.986 -0.63599998 7
3.335 -1.01 -0.60100001 11
3.4619999 -1.038 -0.56599998 12
2.937 -0.90399998 -0.72899997 8
3.0250001 -0.92000002 -0.69700003 6
3.122 -0.93900001 -0.66500002 7
3.23 -0.96100003 -0.63300002 8
3.3440001 -0.98500001 -0.59899998 8
3.4619999 -1.01 -0.56199998 8
2.948 -0.88200003 -0.72799999 6
3.0369999 -0.898 -0.69599998 6
3.1300001 -0.91600001 -0.66299999 9
3.2449999 -0.93900001 -0.63200003 8
3.3540001 -0.95999998 -0.597 8
3.471 -0.98400003 -0.56 9
2.9590001 -0.861 -0.72600001 5
3.0420001 -0.87400001 -0.69300002 6
3.142 -0.89300001 -0.662 6
3.25 -0.91299999 -0.62900001 7
3.3599999 -0.935 -0.59399998 6
3.4849999 -0.95999998 -0.55800003 8
2.9619999 -0.83600003 -0.72299999 6
3.0439999 -0.84899998 -0.69 9
3.141 -0.86699998 -0.65799999 9
3.2690001 -0.89200002 -0.62900001 6
3.3740001 -0.91100001 -0.59299999 9
3.493 -0.93400002 -0.55599999 8
2.9679999 -0.81300002 -0.72100002 5
3.062 -0.829 -0.69 6
3.164 -0.847 -0.65899998 6
3.276 -0.86699998 -0.62699997 8
3.3859999 -0.88599998 -0.59100002 7
3.503 -0.90799999 -0.55400002 8
2.9760001 -0.79000002 -0.71899998 8
3.072 -0.80599999 -0.68900001 6
3.1700001 -0.82200003 -0.65700001 8
3.279 -0.84100002 -0.62400001 7
3.3959999 -0.861 -0.58899999 7
3.5150001 -0.88200003 -0.55299997 8
2.993 -0.76999998 -0.71899998 6
3.075 -0.78100002 -0.68599999 7
3.178 -0.79799998 -0.65499997 7
3.29 -0.81599998 -0.62199998 6
3.401 -0.83399999 -0.58700001 7
3.523 -0.85600001 -0.55000001 9
2.9920001 -0.74400002 -0.71499997 8
3.0880001 -0.75800002 -0.685 8
3.1819999 -0.77200001 -0.65200001 7
3.303 -0.792 -0.62099999 6
3.4119999 -0.80900002 -0.58499998 6
3.5339999 -0.829 -0.54799998 8
3.0079999 -0.722 -0.71499997 8
3.0899999 -0.73299998 -0.68199998 5
3.204 -0.75 -0.653 6
3.306 -0.76499999 -0.61799997 7
3.4300001 -0.78500003 -0.58499998 6
3.543 -0.80199999 -0.546 9
3.0139999 -0.69800001 -0.713 7
3.108 -0.71100003 -0.68199998 6
3.2119999 -0.72500002 -0.65100002 5
3.3180001 -0.74000001 -0.61699998 5
3.4330001 -0.75700003 -0.58200002 6
0 0 0 50
3.02 -0.67400002 -0.71100003 11
3.115 -0.68599999 -0.68000001 6
3.2160001 -0.699 -0.648 6
3.3280001 -0.71499997 -0.616 6
3.4430001 -0.73100001 -0.57999998 6
3.562 -0.74800003 -0.54299998 7
3.033 -0.65100002 -0.71100003 6
3.1170001 -0.66000003 -0.67799997 8
3.2309999 -0.676 -0.648 5
3.3399999 -0.69 -0.61500001 5
3.4530001 -0.70499998 -0.579 7
3.5780001 -0.722 -0.542 6
3.0380001 -0.62699997 -0.70899999 7
3.1259999 -0.63599998 -0.676 6
3.2349999 -0.64999998 -0.64600003 6
3.3510001 -0.66500002 -0.61400002 5
3.4619999 -0.67799997 -0.57700002 6
3.5869999 -0.69499999 -0.54100001 7
3.0510001 -0.60299999 -0.708 7
3.135 -0.611 -0.67500001 7
3.2390001 -0.62400001 -0.64300001 6
3.365 -0.63999999 -0.61299998 6
3.467 -0.65100002 -0.57499999 6
3.5940001 -0.667 -0.53899997 8
3.0569999 -0.579 -0.70700002 10
3.142 -0.58700001 -0.67400002 7
3.247 -0.59799999 -0.64200002 6
3.3659999 -0.61199999 -0.61000001 6
3.4860001 -0.62599999 -0.57599998 6
3.608 -0.63999999 -0.53799999 8
3.0699999 -0.55500001 -0.70700002 6
3.154 -0.56199998 -0.67299998 7
3.2750001 -0.57599998 -0.64499998 5
3.375 -0.58600003 -0.60900003 5
3.494 -0.59899998 -0.574 5
3.618 -0.61199999 -0.537 6
3.0639999 -0.528 -0.70300001 8
3.1600001 -0.537 -0.67199999 5
3.2739999 -0.54900002 -0.64200002 5
3.385 -0.56 -0.60799998 5
3.5009999 -0.57099998 -0.57300001 5
3.625 -0.58399999 -0.53500003 6
3.073 -0.50400001 -0.70200002 7
3.165 -0.51200002 -0.67000002 6
3.273 -0.52100003 -0.639 6
3.3900001 -0.53200001 -0.60699999 5
0 0 0 50
3.6300001 -0.55500001 -0.53299999 6
3.079 -0.479 -0.70099998 7
3.177 -0.48699999 -0.67000002 7
3.283 -0.495 -0.639 5
3.404 -0.50599998 -0.60699999 5
3.5039999 -0.514 -0.56800002 4
3.6370001 -0.52600002 -0.53200001 7
3.0899999 -0.45500001 -0.70099998 8
3.1819999 -0.461 -0.66900003 7
3.2939999 -0.47 -0.63800001 5
3.4059999 -0.479 -0.60500002 5
3.5250001 -0.48800001 -0.56900001 5
3.642 -0.49700001 -0.53100002 9
3.1029999 -0.43000001 -0.70099998 6
3.1819999 -0.43399999 -0.667 8
3.2920001 -0.442 -0.63599998 5
3.4089999 -0.45100001 -0.60299999 5
3.5339999 -0.46000001 -0.56900001 5
3.652 -0.46900001 -0.52999997 7
3.1059999 -0.40400001 -0.69999999 6
3.1889999 -0.40799999 -0.66600001 7
3.3110001 -0.417 -0.63700002 5
3.418 -0.42300001 -0.60299999 5
3.5339999 -0.43099999 -0.56699997 5
3.661 -0.44 -0.52899998 7
3.1059999 -0.37799999 -0.69800001 6
3.2 -0.38299999 -0.66600001 6
3.316 -0.38999999 -0.63599998 5
3.427 -0.39700001 -0.602 6
3.55 -0.40400001 -0.56699997 5
3.6659999 -0.41100001 -0.528 6
3.1199999 -0.354 -0.699 6
3.2019999 -0.35600001 -0.66500002 6
3.3180001 -0.36300001 -0.63499999 5
3.4330001 -0.36899999 -0.60100001 5
3.552 -0.375 -0.56599998 5
3.6760001 -0.382 -0.528 7
3.1210001 -0.32800001 -0.69700003 7
3.21 -0.331 -0.66500002 5
3.3169999 -0.33500001 -0.63300002 6
3.431 -0.34099999 -0.60000002 5
3.5639999 -0.34799999 -0.56599998 5
3.674 -0.352 -0.52600002 8
3.122 -0.30199999 -0.69599998 7
3.217 -0.30500001 -0.66500002 5
3.3340001 -0.31 -0.63499999 5
3.4460001 -0.31400001 -0.60100001 5
3.5639999 -0.31900001 -0.565 5
3.684 -0.32300001 -0.52600002 6
3.1270001 -0.27599999 -0.69599998 6
3.221 -0.278 -0.66399997 6
3.3280001 -0.28200001 -0.63200003 5
3.4489999 -0.28600001 -0.60000002 5
3.5650001 -0.28999999 -0.56400001 6
3.687 -0.294 -0.52499998 8
3.1300001 -0.25 -0.69499999 8
3.2290001 -0.252 -0.66399997 5
0 0 0 50
3.4519999 -0.25799999 -0.59899998 5
3.5650001 -0.26100001 -0.56199998 5
3.697 -0.26499999 -0.52499998 6
3.1400001 -0.22499999 -0.69599998 9
3.234 -0.226 -0.66399997 5
3.3380001 -0.227 -0.63200003 5
3.4460001 -0.229 -0.597 5
3.586 -0.233 -0.565 5
3.7060001 -0.235 -0.52600002 7
3.1370001 -0.198 -0.69499999 8
3.2420001 -0.199 -0.66500002 5
3.3559999 -0.20100001 -0.634 5
3.454 -0.20100001 -0.59799999 5
3.5799999 -0.204 -0.56300002 5
3.7079999 -0.205 -0.52499998 7
3.152 -0.17299999 -0.69700003 7
3.2409999 -0.17200001 -0.66399997 7
3.346 -0.17299999 -0.63200003 6
3.47 -0.17399999 -0.60000002 5
3.582 -0.175 -0.56300002 5
3.71 -0.176 -0.52499998 6
3.151 -0.146 -0.69599998 7
3.24 -0.146 -0.66299999 6
3.352 -0.146 -0.63200003 5
3.47 -0.146 -0.59899998 5
3.589 -0.146 -0.56300002 5
3.7160001 -0.146 -0.52499998 6
3.151 -0.12 -0.69599998 10
3.2550001 -0.119 -0.66600001 5
3.365 -0.119 -0.634 5
3.473 -0.118 -0.59899998 5
3.5940001 -0.117 -0.56300002 5
3.7219999 -0.116 -0.52600002 6
3.1500001 -0.093999997 -0.69499999 5
3.256 -0.092 -0.66500002 5
3.372 -0.090999998 -0.63499999 5
3.477 -0.089000002 -0.60000002 4
3.6029999 -0.088 -0.565 5
3.727 -0.086000003 -0.52600002 6
3.164 -0.068000004 -0.69800001 6
3.25 -0.064999998 -0.66399997 5
3.3710001 -0.063000001 -0.63499999 5
3.48 -0.061000001 -0.60000002 5
3.5969999 -0.059 -0.56400001 5
3.7249999 -0.056000002 -0.52600002 7
3.161 -0.041999999 -0.69700003 7
3.257 -0.039000001 -0.66500002 4
3.3729999 -0.035999998 -0.63499999 5
3.4820001 -0.033 -0.60000002 5
3.6029999 -0.029999999 -0.565 5
3.7279999 -0.026000001 -0.52600002 6
3.1559999 -0.015 -0.69599998 8
3.25 -0.012 -0.66399997 5
3.3440001 -0.0080000004 -0.63 4
3.477 -0.0049999999 -0.60000002 5
3.6010001 -0.001 -0.565 5
3.723 0.003 -0.52600002 5
3.161 0.0099999998 -0.69800001 7
3.26 0.014 -0.667 5
3.378 0.017999999 -0.63700002 4
3.483 0.023 -0.60100001 5
0 0 0 50
3.7309999 0.033 -0.52700001 6
3.1659999 0.035999998 -0.699 5
3.26 0.041000001 -0.667 5
3.378 0.046 -0.63700002 4
3.484 0.050999999 -0.602 5
3.6010001 0.057 -0.56599998 5
3.7249999 0.063000001 -0.52700001 5
3.161 0.061999999 -0.69800001 5
3.2590001 0.068000004 -0.667 4
3.3829999 0.074000001 -0.639 4
3.4909999 0.079999998 -0.60399997 5
3.602 0.086000003 -0.56599998 5
3.7390001 0.093000002 -0.52999997 7
3.165 0.089000002 -0.69999999 4
3.2539999 0.093999997 -0.667 5
3.381 0.101 -0.639 4
3.487 0.108 -0.60399997 5
3.6129999 0.115 -0.56900001 5
3.7349999 0.123 -0.52999997 5
3.171 0.115 -0.70200002 5
3.2639999 0.121 -0.67000002 5
3.3829999 0.12899999 -0.63999999 4
3.45 0.13500001 -0.59799999 4
3.615 0.145 -0.56999999 5
3.7290001 0.152 -0.52999997 6
3.1659999 0.141 -0.70200002 5
3.26 0.148 -0.67000002 6
3.3670001 0.156 -0.63800001 5
3.487 0.164 -0.60600001 5
3.618 0.17399999 -0.57200003 5
3.7279999 0.182 -0.53100002 5
3.164 0.167 -0.70300001 5
3.26 0.175 -0.67199999 5
3.3800001 0.184 -0.64200002 5
3.4389999 0.19 -0.59899998 4
3.608 0.20200001 -0.57200003 5
3.7360001 0.213 -0.53399998 6
3.1689999 0.193 -0.70599997 5
3.2620001 0.20200001 -0.67299998 5
3.3699999 0.211 -0.64200002 5
3.4790001 0.22 -0.60699999 4
3.599 0.23100001 -0.57200003 4
3.734 0.242 -0.53500003 5
3.164 0.219 -0.70599997 5
3.263 0.228 -0.67500001 4
3.3729999 0.23800001 -0.64399999 5
3.484 0.248 -0.61000001 4
3.609 0.25999999 -0.57499999 5
3.7360001 0.27200001 -0.537 6
3.168 0.245 -0.708 5
3.2579999 0.25400001 -0.676 5
3.326 0.26199999 -0.63599998 4
3.4860001 0.27700001 -0.61199999 5
3.6110001 0.289 -0.57700002 5
3.724 0.301 -0.537 8
3.165 0.271 -0.70899999 4
3.2550001 0.28099999 -0.67699999 4
3.3789999 0.29300001 -0.648 5
3.4790001 0.30399999 -0.61199999 5
3.609 0.31799999 -0.57800001 5
3.7309999 0.331 -0.54000002 6
3.164 0.29699999 -0.71100003 4
3.257 0.30700001 -0.67900002 4
3.345 0.317 -0.64399999 4
3.4809999 0.33199999 -0.61400002 5
3.596 0.345 -0.57800001 5
3.7279999 0.36000001 -0.54100001 5
3.1589999 0.322 -0.71200001 5
3.2550001 0.33399999 -0.68099999 5
3.3699999 0.347 -0.65100002 5
3.4779999 0.36000001 -0.616 5
3.5940001 0.37400001 -0.57999998 5
3.7309999 0.38999999 -0.54400003 6
3.1589999 0.34799999 -0.71399999 5
3.2509999 0.36000001 -0.68199998 4
3.332 0.37 -0.64600003 4
3.4690001 0.38699999 -0.61699998 5
3.592 0.40200001 -0.58200002 6
3.727 0.419 -0.54500002 6
3.152 0.373 -0.71499997 5
3.2420001 0.38499999 -0.68300003 4
3.3269999 0.39700001 -0.64700001 4
3.4590001 0.41299999 -0.61699998 4
3.5940001 0.43099999 -0.58399999 5
0 0 0 50
3.158 0.40000001 -0.71899998 5
3.2520001 0.41299999 -0.68699998 5
3.3080001 0.421 -0.64499998 4
3.4679999 0.442 -0.62099999 5
3.598 0.46000001 -0.588 5
3.7179999 0.477 -0.54900002 6
3.148 0.42399999 -0.71899998 6
3.25 0.43900001 -0.68900001 5
3.3629999 0.45500001 -0.65899998 5
3.4519999 0.46799999 -0.62099999 4
3.5899999 0.48800001 -0.58899999 5
3.711 0.505 -0.55000001 6
3.142 0.449 -0.72100002 7
3.2490001 0.465 -0.69199997 5
3.355 0.48100001 -0.66000003 5
3.467 0.498 -0.62599999 5
3.576 0.51499999 -0.58899999 5
3.724 0.537 -0.55500001 6
3.141 0.47499999 -0.72299999 6
3.2260001 0.48800001 -0.69 6
3.358 0.50800002 -0.66299999 5
3.461 0.52499998 -0.62800002 5
3.585 0.54400003 -0.59299999 5
3.7049999 0.56400001 -0.55500001 6
3.1389999 0.5 -0.72600001 6
3.2379999 0.51599997 -0.69499999 5
3.3510001 0.53399998 -0.66500002 5
3.4619999 0.55199999 -0.63099998 5
3.5669999 0.56999999 -0.59299999 5
3.707 0.59299999 -0.55800003 6
3.131 0.52399999 -0.727 5
3.2290001 0.54100001 -0.69599998 5
3.3559999 0.56199998 -0.66900003 5
3.4560001 0.579 -0.63300002 5
3.5769999 0.59899998 -0.59799999 5
3.701 0.62099999 -0.56 6
3.131 0.55000001 -0.73000002 5
3.227 0.56699997 -0.699 5
3.345 0.58700001 -0.67000002 5
3.447 0.60500002 -0.634 5
3.5739999 0.62699997 -0.60100001 6
3.6889999 0.648 -0.56099999 5
3.125 0.574 -0.73199999 5
3.223 0.59200001 -0.70099998 5
3.3380001 0.61199999 -0.671 5
3.425 0.62800002 -0.63300002 4
3.5610001 0.653 -0.602 5
3.698 0.67900002 -0.56599998 6
3.1170001 0.59799999 -0.73299998 6
3.2179999 0.61699998 -0.70300001 5
3.296 0.63099998 -0.66600001 4
3.4130001 0.653 -0.634 4
3.5420001 0.67799997 -0.602 4
3.6900001 0.70599997 -0.56800002 6
3.112 0.62199998 -0.73500001 5
3.211 0.64099997 -0.70499998 6
3.312 0.66000003 -0.67299998 4
3.4300001 0.68300003 -0.64099997 5
3.552 0.708 -0.60600001 5
3.6789999 0.73299998 -0.56999999 6
0 0 0 50
3.2149999 0.66799998 -0.70899999 5
3.3280001 0.69 -0.67900002 5
3.4349999 0.71100003 -0.64499998 5
3.53 0.73100001 -0.60600001 4
3.6860001 0.76300001 -0.574 6
3.1040001 0.671 -0.74000001 10
3.2019999 0.69099998 -0.70999998 5
3.323 0.71600002 -0.68199998 5
3.427 0.73699999 -0.64700001 5
3.5450001 0.76200002 -0.61199999 5
3.668 0.78799999 -0.57499999 6
3.102 0.69599998 -0.74400002 7
3.2149999 0.71899998 -0.71600002 4
3.3210001 0.74199998 -0.685 5
3.4119999 0.75999999 -0.648 5
3.539 0.78799999 -0.61400002 5
3.6670001 0.81599998 -0.57800001 6
3.098 0.71899998 -0.74599999 5
3.191 0.73900002 -0.71499997 6
3.3169999 0.76700002 -0.68800002 5
3.4260001 0.79000002 -0.65399998 5
3.5280001 0.81300002 -0.616 5
3.664 0.84299999 -0.58099997 5
3.092 0.74299997 -0.74800003 6
3.188 0.764 -0.71799999 6
3.3010001 0.78899997 -0.68800002 5
3.4159999 0.815 -0.65499997 5
3.5190001 0.838 -0.61799997 4
3.6589999 0.87099999 -0.58399999 6
3.0899999 0.76700002 -0.75099999 6
3.191 0.78899997 -0.722 6
3.2809999 0.81 -0.68699998 5
3.411 0.83999997 -0.65799999 5
3.5250001 0.86699998 -0.62199998 5
3.6559999 0.898 -0.58700001 5
3.0869999 0.79000002 -0.75400001 7
3.1760001 0.81099999 -0.722 5
3.286 0.83700001 -0.69199997 5
3.3959999 0.86299998 -0.65899998 5
3.5209999 0.89300001 -0.625 5
3.654 0.92500001 -0.58999997 6
3.0799999 0.81300002 -0.75599998 5
3.1760001 0.83499998 -0.72600001 18
3.2920001 0.86400002 -0.69700003 5
3.3959999 0.889 -0.662 6
0 0 0 50
3.6429999 0.94999999 -0.59100002 6
3.0739999 0.83499998 -0.759 6
3.171 0.85900003 -0.72799999 6
3.293 0.889 -0.70099998 6
3.402 0.91600001 -0.667 6
3.4820001 0.935 -0.625 4
3.6029999 0.96600002 -0.588 5
3.0669999 0.85699999 -0.76099998 6
3.165 0.88099998 -0.73000002 7
3.277 0.90899998 -0.70099998 6
3.375 0.93400002 -0.66500002 5
3.503 0.96700001 -0.63300002 5
3.6110001 0.995 -0.59299999 5
3.062 0.87900001 -0.76300001 5
3.1600001 0.90399998 -0.73299998 6
3.276 0.93400002 -0.704 6
3.3870001 0.963 -0.671 6
3.507 0.99400002 -0.63700002 6
3.6270001 1.027 -0.59899998 7
3.063 0.903 -0.76700002 11
3.161 0.92799997 -0.73699999 6
3.2709999 0.95700002 -0.70700002 6
3.375 0.98500001 -0.67199999 5
3.4979999 1.018 -0.639 6
3.625 1.053 -0.602 6
3.052 0.92299998 -0.76800001 8
3.148 0.94800001 -0.73699999 6
3.267 0.98100001 -0.70899999 6
3.3770001 1.01 -0.676 6
3.4920001 1.0420001 -0.64099997 5
3.6070001 1.074 -0.60299999 6
3.053 0.94599998 -0.77200001 10
3.142 0.97000003 -0.73900002 6
3.2590001 1.002 -0.71100003 6
3.3740001 1.034 -0.67900002 6
3.503 1.071 -0.64600003 6
3.6099999 1.101 -0.60699999 6
3.046 0.96700001 -0.77399999 6
3.1500001 0.995 -0.745 6
3.2360001 1.0190001 -0.70999998 5
3.365 1.056 -0.68099999 6
3.4860001 1.091 -0.64700001 6
3.5869999 1.12 -0.60600001 5
3.043 0.98900002 -0.77600002 5
3.1359999 1.0140001 -0.745 6
3.2609999 1.051 -0.71799999 6
3.365 1.08 -0.68400002 6
3.451 1.105 -0.64300001 5
3.602 1.15 -0.61199999 7
3.039 1.0089999 -0.77899998 5
3.1359999 1.0369999 -0.74800003 5
3.243 1.068 -0.71799999 6
3.3540001 1.101 -0.685 5
3.4690001 1.135 -0.64999998 5
3.566 1.164 -0.60900003 5
3.0380001 1.031 -0.78200001 5
0 0 0 50
3.25 1.094 -0.72299999 6
3.3380001 1.119 -0.685 5
3.4660001 1.159 -0.653 6
3.5999999 1.2 -0.61799997 7
3.0320001 1.051 -0.78399998 5
3.1300001 1.08 -0.75400001 6
3.2409999 1.113 -0.72399998 6
3.316 1.135 -0.68400002 5
3.4649999 1.182 -0.65600002 6
3.602 1.226 -0.62099999 7
3.026 1.0700001 -0.78500003 5
3.1229999 1.099 -0.755 6
3.2409999 1.136 -0.727 6
3.3369999 1.165 -0.69099998 6
3.4560001 1.2029999 -0.65700001 6
3.5810001 1.243 -0.62 7
3.02 1.089 -0.787 7
3.1229999 1.1210001 -0.75800002 5
3.2349999 1.156 -0.72899997 6
3.3399999 1.189 -0.69499999 6
0 0 0 0
3.586 1.2690001 -0.62400001 6
3.0190001 1.11 -0.79000002 5
3.1159999 1.14 -0.759 5
3.2249999 1.174 -0.72899997 5
3.332 1.209 -0.69599998 5
3.444 1.245 -0.66000003 6
3.553 1.281 -0.62099999 5
3.01 1.127 -0.79000002 6
3.1110001 1.159 -0.76099998 6
3.2320001 1.199 -0.73299998 6
3.3329999 1.2309999 -0.69800001 6
3.447 1.2690001 -0.66299999 6
3.572 1.311 -0.62699997 6
3.006 1.146 -0.792 6
3.1110001 1.179 -0.76300001 6
3.21 1.212 -0.73100001 5
3.3310001 1.252 -0.70099998 6
3.428 1.284 -0.662 5
3.572 1.3329999 -0.62900001 6
3.0109999 1.1670001 -0.796 7
3.108 1.198 -0.76499999 6
3.22 1.235 -0.736 6
3.3310001 1.273 -0.70300001 6
3.4230001 1.303 -0.66299999 5
3.5780001 1.358 -0.63200003 7
3.0050001 1.183 -0.79699999 6
3.1010001 1.215 -0.76599997 6
3.2160001 1.2539999 -0.73699999 6
3.319 1.289 -0.70300001 6
3.4189999 1.322 -0.66500002 6
3.5569999 1.372 -0.63099998 6
3.0020001 1.201 -0.79799998 6
3.1010001 1.234 -0.76800001 7
3.2 1.267 -0.736 6
3.3080001 1.304 -0.70200002 6
3.4330001 1.349 -0.66900003 6
3.562 1.395 -0.634 6
3.003 1.219 -0.80000001 6
3.0999999 1.252 -0.76999998 6
3.2190001 1.294 -0.74199998 7
3.313 1.326 -0.70499998 6
3.441 1.372 -0.67299998 6
3.5569999 1.414 -0.63499999 7
3 1.2359999 -0.80199999 6
3.0899999 1.266 -0.76899999 6
3.217 1.312 -0.74299997 6
3.2980001 1.339 -0.704 5
3.4389999 1.391 -0.67400002 6
3.5539999 1.433 -0.63599998 6
2.9949999 1.251 -0.80199999 7
3.098 1.2869999 -0.773 6
3.2119999 1.3279999 -0.74400002 6
3.309 1.362 -0.708 7
3.4430001 1.4119999 -0.676 7
3.5650001 1.457 -0.639 7
2.994 1.267 -0.80400002 7
3.0929999 1.302 -0.77399999 6
3.1900001 1.336 -0.74000001 6
3.3139999 1.382 -0.70999998 6
3.4349999 1.427 -0.676 6
3.5539999 1.471 -0.63800001 7
2.994 1.283 -0.80500001 6
3.0999999 1.322 -0.77600002 6
3.2119999 1.363 -0.74699998 6
3.3110001 1.398 -0.70999998 7
3.418 1.438 -0.67400002 6
3.556 1.4910001 -0.639 7
2.9920001 1.298 -0.80599999 6
3.098 1.336 -0.77700001 6
0 0 0 50
3.309 1.414 -0.71100003 6
3.408 1.45 -0.67199999 5
3.533 1.499 -0.63599998 6
2.997 1.3150001 -0.80800003 5
3.092 1.349 -0.77600002 7
3.2030001 1.39 -0.74599999 6
3.3069999 1.429 -0.71100003 6
3.402 1.464 -0.67199999 4
3.54 1.5190001 -0.63800001 6
2.993 1.327 -0.80800003 6
3.096 1.365 -0.778 6
3.211 1.409 -0.74900001 7
3.316 1.448 -0.71399999 6
3.4119999 1.484 -0.67400002 6
3.5250001 1.528 -0.63599998 5
3 1.345 -0.81 5
3.0940001 1.378 -0.778 6
3.1960001 1.416 -0.745 6
3.2969999 1.455 -0.70999998 6
3.421 1.503 -0.676 6
3.543 1.552 -0.639 6
3.0009999 1.358 -0.81099999 6
3.098 1.3940001 -0.77899998 6
3.2060001 1.4349999 -0.74800003 6
3.319 1.479 -0.71499997 6
3.4000001 1.5089999 -0.67199999 5
3.539 1.5650001 -0.63800001 6
3 1.37 -0.81 5
3.0910001 1.403 -0.77700001 6
3.21 1.449 -0.74900001 7
3.3039999 1.485 -0.71100003 6
3.4260001 1.534 -0.67699999 6
3.5469999 1.582 -0.639 6
2.9909999 1.377 -0.80800003 6
3.089 1.413 -0.77700001 5
3.1900001 1.452 -0.74400002 6
3.296 1.494 -0.70899999 6
3.4230001 1.545 -0.676 6
3.5309999 1.5880001 -0.63599998 5
2.9990001 1.391 -0.80900002 6
3.099 1.429 -0.77899998 6
3.2119999 1.474 -0.74800003 6
3.325 1.518 -0.71499997 7
3.418 1.5549999 -0.67400002 5
3.543 1.6059999 -0.63700002 6
3 1.401 -0.80900002 6
3.1029999 1.441 -0.77899998 5
3.214 1.485 -0.74800003 7
3.3210001 1.527 -0.713 7
0 0 0 50
3.5420001 1.617 -0.63599998 5
3.0039999 1.4119999 -0.80900002 6
3.1040001 1.451 -0.778 6
3.194 1.4859999 -0.74299997 6
3.326 1.54 -0.713 6
3.4519999 1.592 -0.67900002 6
3.566 1.6390001 -0.639 7
3.007 1.4220001 -0.80900002 6
3.1070001 1.461 -0.778 7
3.1889999 1.492 -0.74000001 6
3.2939999 1.534 -0.70499998 5
3.4419999 1.597 -0.676 6
3.5569999 1.6440001 -0.63599998 6
3.0120001 1.432 -0.80900002 6
3.1029999 1.467 -0.77600002 6
3.23 1.5190001 -0.74800003 6
3.2969999 1.544 -0.704 5
3.4400001 1.604 -0.67400002 6
3.566 1.6569999 -0.63599998 6
3.0150001 1.4400001 -0.80800003 6
3.1129999 1.479 -0.77700001 6
3.2160001 1.5190001 -0.74299997 6
3.3050001 1.554 -0.704 5
3.4419999 1.613 -0.67199999 6
3.5650001 1.665 -0.63300002 6
3.0150001 1.446 -0.80599999 7
3.118 1.487 -0.77600002 7
3.1960001 1.516 -0.73699999 6
3.319 1.567 -0.70499998 6
3.454 1.625 -0.67199999 7
3.576 1.677 -0.63300002 7
3.0220001 1.454 -0.80599999 7
3.1240001 1.495 -0.77499998 7
3.24 1.543 -0.745 7
3.325 1.576 -0.704 6
3.4619999 1.6339999 -0.671 7
3.5669999 1.678 -0.62900001 5
3.027 1.461 -0.80500001 6
3.1240001 1.499 -0.773 6
3.2509999 1.552 -0.745 7
3.3199999 1.5779999 -0.70099998 5
3.4760001 1.646 -0.67199999 7
3.5840001 1.691 -0.63 6
3.03 1.465 -0.80400002 7
3.122 1.501 -0.76999998 6
3.247 1.553 -0.741 7
3.342 1.592 -0.70300001 6
3.4760001 1.649 -0.66900003 7
3.5810001 1.693 -0.62599999 6
3.0380001 1.471 -0.80299997 6
3.141 1.512 -0.77200001 6
3.25 1.557 -0.73900002 7
3.348 1.597 -0.70099998 6
3.4749999 1.651 -0.66600001 6
3.586 1.698 -0.62400001 5
3.0369999 1.472 -0.80000001 6
3.1489999 1.518 -0.77100003 6
3.2509999 1.559 -0.736 7
3.3529999 1.601 -0.699 6
3.4760001 1.653 -0.66299999 6
3.599 1.706 -0.62300003 6
3.0420001 1.475 -0.79900002 6
3.148 1.518 -0.76800001 6
3.2579999 1.563 -0.73500001 7
3.3510001 1.6 -0.69499999 6
3.4879999 1.66 -0.662 7
3.6099999 1.712 -0.62199998 6
3.0539999 1.48 -0.79799998 6
3.158 1.522 -0.76700002 6
3.27 1.568 -0.73400003 7
3.3659999 1.607 -0.69499999 6
3.4949999 1.6619999 -0.66000003 6
3.619 1.716 -0.62 6
3.0599999 1.482 -0.79699999 6
3.1619999 1.523 -0.76499999 6
3.2839999 1.573 -0.73400003 7
3.3759999 1.61 -0.69400001 6
3.4949999 1.661 -0.65600002 6
3.625 1.717 -0.61699998 6
3.0669999 1.482 -0.79500002 6
3.1619999 1.52 -0.76099998 6
0 0 0 50
3.378 1.609 -0.69 6
3.5079999 1.664 -0.65399998 6
3.6329999 1.7180001 -0.61400002 7
3.0710001 1.4809999 -0.792 6
3.1730001 1.522 -0.75999999 7
3.296 1.573 -0.72899997 7
3.3759999 1.604 -0.68599999 5
3.5120001 1.663 -0.65100002 6
3.638 1.717 -0.611 6
3.082 1.482 -0.79100001 7
3.1800001 1.521 -0.75700003 6
3.2909999 1.566 -0.72399998 7
3.3840001 1.603 -0.68300003 6
3.517 1.661 -0.648 6
3.6489999 1.717 -0.60900003 6
3.0880001 1.48 -0.78899997 7
3.1860001 1.518 -0.755 6
3.3039999 1.567 -0.72299999 7
3.404 1.608 -0.68400002 6
3.5369999 1.664 -0.648 7
3.6559999 1.715 -0.60600001 6
3.0910001 1.475 -0.78500003 6
3.194 1.515 -0.75199997 6
3.3099999 1.563 -0.72000003 7
3.4400001 1.618 -0.68699998 8
3.5339999 1.656 -0.64300001 6
3.6889999 1.723 -0.60699999 4
3.092 1.4680001 -0.78100002 5
3.1989999 1.511 -0.75 6
3.286 1.545 -0.71100003 6
3.4489999 1.615 -0.68400002 7
3.5510001 1.656 -0.64200002 7
3.6760001 1.71 -0.60000002 5
3.108 1.4680001 -0.78100002 6
3.2119999 1.5089999 -0.74800003 7
3.2909999 1.539 -0.70700002 6
3.4230001 1.594 -0.67500001 6
3.55 1.647 -0.63700002 6
3.6889999 1.707 -0.59799999 6
3.112 1.461 -0.778 7
3.2079999 1.498 -0.74299997 6
3.303 1.535 -0.70599997 6
3.45 1.597 -0.676 7
3.566 1.645 -0.63599998 7
3.6989999 1.702 -0.59500003 6
3.122 1.456 -0.77600002 7
3.2320001 1.5 -0.74400002 6
3.3299999 1.538 -0.70700002 6
3.4430001 1.5829999 -0.67000002 6
3.576 1.6390001 -0.63300002 6
3.711 1.696 -0.59200001 7
3.1289999 1.448 -0.773 6
3.2349999 1.49 -0.741 7
3.3510001 1.536 -0.70700002 6
3.4660001 1.582 -0.66900003 6
3.5829999 1.63 -0.62900001 6
3.714 1.6849999 -0.588 6
3.1329999 1.439 -0.76999998 6
3.24 1.48 -0.73699999 6
3.336 1.518 -0.699 6
3.4530001 1.564 -0.66299999 6
3.579 1.6160001 -0.62400001 4
3.743 1.6849999 -0.588 7
3.1440001 1.432 -0.76800001 6
3.2479999 1.472 -0.73500001 7
3.336 1.505 -0.69499999 6
3.4619999 1.5549999 -0.66000003 6
3.5880001 1.607 -0.62099999 4
3.7349999 1.668 -0.58200002 6
3.1459999 1.42 -0.764 7
