# .PCD v0.7 - Point Cloud Data file format
VERSION 0.7
FIELDS x y z intensity
SIZE 4 4 4 4
TYPE F F F F
COUNT 1 1 1 1
WIDTH 1663
HEIGHT 1
VIEWPOINT 0 0 0 1 0 0 0
POINTS 1663
DATA ascii
4.2150002 -3.099 -0.237 6
3.3610001 -2.4690001 -0.51800001 7
3.513 -2.5829999 -0.472 5
3.6659999 -2.7 -0.421 6
3.835 -2.8299999 -0.366 5
4.0149999 -2.971 -0.30599999 6
4.2119999 -3.128 -0.23899999 6
3.355 -2.4909999 -0.51999998 7
3.4990001 -2.5999999 -0.47299999 7
3.658 -2.7219999 -0.42300001 9
3.8299999 -2.855 -0.368 5
4.0009999 -2.9909999 -0.30700001 6
4.1999998 -3.1500001 -0.241 6
3.342 -2.507 -0.52100003 5
3.4879999 -2.618 -0.47400001 6
3.6589999 -2.75 -0.426 6
3.8180001 -2.8740001 -0.37 5
3.9979999 -3.017 -0.30899999 5
0 0 0 50
3.336 -2.527 -0.523 6
3.4779999 -2.635 -0.47600001 6
3.641 -2.7609999 -0.42699999 7
3.8150001 -2.898 -0.37200001 5
3.9879999 -3.0369999 -0.31099999 6
4.1799998 -3.1919999 -0.245 6
3.3299999 -2.5450001 -0.52499998 7
3.4690001 -2.652 -0.47799999 6
3.638 -2.7839999 -0.42899999 5
3.8069999 -2.9170001 -0.37400001 5
3.9760001 -3.053 -0.31299999 6
4.1729999 -3.2130001 -0.24699999 6
3.3169999 -2.5580001 -0.52600002 7
3.4809999 -2.684 -0.48300001 5
3.6329999 -2.803 -0.43200001 5
3.7969999 -2.9330001 -0.37599999 5
3.971 -3.073 -0.31600001 6
4.1599998 -3.2279999 -0.249 6
3.3110001 -2.5739999 -0.52899998 6
3.4590001 -2.688 -0.48300001 7
3.6170001 -2.812 -0.433 5
3.7809999 -2.9430001 -0.37799999 5
3.957 -3.086 -0.317 5
0 0 0 50
3.3080001 -2.592 -0.53100002 8
3.4579999 -2.7079999 -0.486 5
3.6129999 -2.8299999 -0.43599999 5
3.773 -2.9579999 -0.38 5
3.9530001 -3.1040001 -0.31999999 5
4.1389999 -3.257 -0.25400001 5
3.2920001 -2.598 -0.53200001 7
3.4330001 -2.707 -0.486 7
3.5999999 -2.839 -0.43700001 5
3.766 -2.971 -0.382 5
3.9389999 -3.112 -0.322 5
4.131 -3.27 -0.257 6
3.286 -2.6099999 -0.53500003 7
3.427 -2.72 -0.48800001 7
3.595 -2.8529999 -0.44 5
3.7550001 -2.98 -0.38499999 5
3.9300001 -3.1229999 -0.32499999 5
4.1170001 -3.277 -0.259 7
3.283 -2.6229999 -0.537 9
3.4170001 -2.7279999 -0.49000001 8
3.5899999 -2.865 -0.44299999 6
0 0 0 50
3.9219999 -3.1329999 -0.32699999 6
4.1059999 -3.2850001 -0.26199999 6
3.2679999 -2.6259999 -0.53799999 7
3.4089999 -2.7360001 -0.49200001 9
3.576 -2.868 -0.44400001 5
3.74 -3 -0.38999999 6
3.9100001 -3.138 -0.329 6
4.1020002 -3.2969999 -0.26499999 6
3.2620001 -2.635 -0.54100001 9
3.402 -2.743 -0.49399999 7
3.5699999 -2.8759999 -0.447 6
3.727 -3.0020001 -0.39199999 5
3.904 -3.1459999 -0.33199999 5
4.0809999 -3.2920001 -0.26699999 6
3.2550001 -2.6400001 -0.54299998 8
3.3929999 -2.7479999 -0.49700001 7
0 0 0 50
3.7160001 -3.0039999 -0.39399999 5
3.8959999 -3.151 -0.33500001 6
4.0819998 -3.3039999 -0.27000001 6
3.243 -2.641 -0.54400003 7
3.3900001 -2.7550001 -0.49900001 8
3.552 -2.8829999 -0.45100001 5
3.7119999 -3.0109999 -0.396 5
3.8870001 -3.1530001 -0.33700001 6
4.0739999 -3.3069999 -0.273 6
3.2379999 -2.6459999 -0.546 8
3.378 -2.753 -0.5 7
3.549 -2.8889999 -0.454 5
3.7060001 -3.0139999 -0.39899999 5
3.8789999 -3.1530001 -0.34 6
4.0669999 -3.3080001 -0.27500001 6
3.2539999 -2.6659999 -0.55199999 5
3.3740001 -2.757 -0.50300002 6
3.5420001 -2.8889999 -0.456 5
3.7 -3.0150001 -0.40200001 5
3.869 -3.151 -0.34200001 6
4.0560002 -3.3039999 -0.278 6
3.2309999 -2.652 -0.551 6
3.365 -2.7550001 -0.505 6
3.527 -2.882 -0.45699999 5
3.6900001 -3.0109999 -0.403 5
3.8659999 -3.152 -0.345 6
4.0409999 -3.2950001 -0.28 6
3.2249999 -2.652 -0.55299997 7
3.375 -2.767 -0.509 6
0 0 0 50
3.6860001 -3.01 -0.40599999 5
3.859 -3.148 -0.347 6
4.0349998 -3.2920001 -0.28200001 6
3.217 -2.648 -0.55400002 7
3.372 -2.766 -0.51099998 6
3.5150001 -2.8759999 -0.461 5
3.6789999 -3.006 -0.40799999 5
3.852 -3.1429999 -0.34999999 6
4.027 -3.2839999 -0.285 7
3.2119999 -2.645 -0.55599999 7
3.3610001 -2.7579999 -0.51200002 6
3.516 -2.8770001 -0.46399999 5
3.6730001 -2.9990001 -0.41 5
3.8440001 -3.1340001 -0.352 6
4.0240002 -3.279 -0.28799999 7
3.2090001 -2.641 -0.55800003 6
3.3340001 -2.734 -0.51099998 6
3.5 -2.862 -0.46399999 5
3.6659999 -2.9909999 -0.412 5
3.832 -3.1210001 -0.35299999 6
4.02 -3.2709999 -0.28999999 6
3.223 -2.6500001 -0.56300002 5
3.336 -2.733 -0.51300001 6
3.503 -2.8599999 -0.46700001 5
3.6619999 -2.983 -0.414 5
3.8299999 -3.1140001 -0.35600001 6
4.013 -3.2590001 -0.292 6
3.2149999 -2.6400001 -0.56300002 5
0 0 0 50
3.497 -2.8510001 -0.46799999 5
3.654 -2.97 -0.41499999 5
3.8269999 -3.105 -0.35800001 6
4.0120001 -3.25 -0.29499999 7
3.198 -2.6210001 -0.56199998 8
3.3469999 -2.7309999 -0.51899999 6
3.4920001 -2.839 -0.47 5
3.652 -2.961 -0.417 6
3.8239999 -3.0929999 -0.359 5
4.0050001 -3.234 -0.296 6
3.1930001 -2.6099999 -0.56300002 7
3.3280001 -2.7079999 -0.51800001 8
3.4979999 -2.835 -0.472 6
3.651 -2.95 -0.419 6
3.816 -3.075 -0.361 5
4.0019999 -3.22 -0.29800001 7
3.1900001 -2.599 -0.56400001 7
3.3269999 -2.698 -0.51899999 8
3.4890001 -2.8180001 -0.472 6
3.641 -2.9300001 -0.419 6
3.8180001 -3.0650001 -0.36300001 6
3.9949999 -3.2 -0.30000001 7
3.1949999 -2.5929999 -0.56599998 8
3.3269999 -2.687 -0.51999998 8
3.49 -2.806 -0.47400001 6
3.6429999 -2.9189999 -0.421 6
3.8139999 -3.0469999 -0.36399999 6
4.0050001 -3.1919999 -0.30199999 6
3.21 -2.5940001 -0.56999999 9
3.325 -2.6730001 -0.52100003 7
3.49 -2.793 -0.47499999 5
3.6370001 -2.9000001 -0.421 6
3.8139999 -3.0320001 -0.36500001 5
3.993 -3.1659999 -0.303 6
3.191 -2.566 -0.56699997 7
3.319 -2.655 -0.52100003 7
3.4849999 -2.7750001 -0.47499999 5
0 0 0 50
3.813 -3.0139999 -0.366 5
3.9960001 -3.1500001 -0.30399999 5
3.1919999 -2.553 -0.56800002 7
3.3199999 -2.6400001 -0.52200001 8
3.4679999 -2.7449999 -0.47400001 6
3.6459999 -2.8729999 -0.42399999 6
3.8080001 -2.99 -0.36700001 5
3.9890001 -3.1229999 -0.30500001 6
3.1889999 -2.5350001 -0.56800002 7
3.3280001 -2.6300001 -0.523 8
3.487 -2.7420001 -0.477 5
3.6429999 -2.852 -0.42500001 5
3.8139999 -2.9749999 -0.368 5
3.993 -3.105 -0.30599999 6
3.1960001 -2.523 -0.56900001 7
3.3299999 -2.6129999 -0.52399999 9
3.474 -2.7130001 -0.47499999 6
3.6400001 -2.829 -0.42399999 5
3.816 -2.954 -0.36899999 5
3.9949999 -3.0829999 -0.30700001 6
3.1930001 -2.503 -0.56800002 8
3.329 -2.5940001 -0.523 9
3.4820001 -2.698 -0.47600001 5
3.6429999 -2.8099999 -0.42500001 7
3.8199999 -2.934 -0.36899999 6
3.9949999 -3.059 -0.30700001 7
3.2179999 -2.503 -0.57200003 9
3.3239999 -2.569 -0.52200001 7
3.474 -2.6700001 -0.47499999 6
3.654 -2.7950001 -0.426 5
3.8180001 -2.908 -0.36899999 5
4.0029998 -3.039 -0.308 6
3.2260001 -2.4890001 -0.57300001 9
3.335 -2.556 -0.523 8
3.484 -2.655 -0.47600001 8
3.6459999 -2.7650001 -0.42500001 7
3.8239999 -2.888 -0.37 5
4.0040002 -3.0120001 -0.308 6
3.2179999 -2.461 -0.56999999 9
3.3340001 -2.533 -0.52200001 8
3.4849999 -2.632 -0.47499999 8
3.651 -2.744 -0.42500001 7
3.825 -2.862 -0.36899999 5
4.0050001 -2.984 -0.308 6
3.2079999 -2.431 -0.56699997 8
3.335 -2.5109999 -0.52100003 7
0 0 0 50
3.658 -2.7219999 -0.42500001 10
3.8340001 -2.8410001 -0.36899999 5
4.0100002 -2.9590001 -0.308 6
3.224 -2.4189999 -0.56900001 9
3.3340001 -2.4849999 -0.51999998 8
3.4979999 -2.5910001 -0.47499999 9
3.655 -2.6930001 -0.42300001 8
3.8329999 -2.8110001 -0.368 6
4.0219998 -2.937 -0.308 8
3.2190001 -2.391 -0.56599998 10
3.3540001 -2.474 -0.52200001 9
3.497 -2.5639999 -0.47299999 7
3.664 -2.671 -0.42300001 9
3.8340001 -2.7820001 -0.36700001 7
4.0279999 -2.9100001 -0.308 8
3.2290001 -2.3729999 -0.56599998 8
3.3570001 -2.45 -0.51999998 9
3.5009999 -2.539 -0.472 8
3.677 -2.652 -0.42300001 6
3.8410001 -2.756 -0.36700001 8
4.0250001 -2.8759999 -0.30599999 6
3.2379999 -2.3540001 -0.56599998 8
3.359 -2.425 -0.51899999 8
3.5050001 -2.513 -0.47099999 6
3.674 -2.619 -0.421 7
3.865 -2.7409999 -0.36700001 11
4.0310001 -2.846 -0.30500001 7
3.243 -2.3299999 -0.56400001 8
3.3859999 -2.415 -0.52100003 9
3.5179999 -2.494 -0.47099999 8
3.6819999 -2.595 -0.41999999 7
3.8570001 -2.7030001 -0.36500001 7
4.0380001 -2.8169999 -0.30399999 6
3.2509999 -2.309 -0.56300002 8
3.3770001 -2.381 -0.51700002 9
3.5220001 -2.4660001 -0.46900001 8
3.701 -2.576 -0.41999999 6
0 0 0 50
4.0500002 -2.7909999 -0.303 8
3.27 -2.2939999 -0.56400001 9
3.3929999 -2.362 -0.51700002 9
3.5380001 -2.447 -0.46900001 8
3.6949999 -2.54 -0.417 6
3.8729999 -2.648 -0.36300001 7
4.0619998 -2.7639999 -0.30199999 7
3.2650001 -2.2609999 -0.56 8
3.4000001 -2.3369999 -0.51499999 9
3.5420001 -2.418 -0.46700001 8
3.704 -2.513 -0.41600001 7
3.878 -2.6170001 -0.361 6
4.0650001 -2.7290001 -0.30000001 6
3.293 -2.2509999 -0.56199998 9
3.411 -2.313 -0.514 7
3.55 -2.391 -0.465 7
0 0 0 50
3.892 -2.5910001 -0.359 5
4.079 -2.701 -0.29899999 8
3.279 -2.21 -0.55599999 7
3.421 -2.289 -0.51300001 8
3.562 -2.3670001 -0.46399999 7
3.73 -2.4619999 -0.41299999 7
3.902 -2.562 -0.35800001 7
4.0890002 -2.6700001 -0.29699999 7
3.2909999 -2.188 -0.55500001 7
3.4159999 -2.253 -0.50800002 6
3.5669999 -2.3369999 -0.461 6
3.7349999 -2.431 -0.41100001 7
3.914 -2.533 -0.35600001 8
4.105 -2.6429999 -0.296 8
0 0 0 50
3.4289999 -2.23 -0.50700003 6
3.5829999 -2.3139999 -0.46000001 8
3.75 -2.4059999 -0.40900001 6
3.925 -2.5039999 -0.354 7
4.112 -2.609 -0.29300001 5
3.3329999 -2.152 -0.55500001 8
3.4360001 -2.2019999 -0.50400001 6
3.595 -2.2869999 -0.458 8
3.7639999 -2.3789999 -0.40799999 7
3.9349999 -2.4719999 -0.352 7
4.125 -2.5780001 -0.292 8
3.3340001 -2.1210001 -0.551 8
3.461 -2.184 -0.50400001 8
3.6029999 -2.2579999 -0.456 8
3.7739999 -2.3499999 -0.405 8
3.9519999 -2.4460001 -0.34999999 8
4.138 -2.5480001 -0.289 7
3.3310001 -2.086 -0.546 7
3.467 -2.155 -0.50099999 6
3.6140001 -2.23 -0.45300001 7
3.789 -2.323 -0.403 8
3.9519999 -2.408 -0.347 7
4.1500001 -2.5150001 -0.287 6
3.3659999 -2.075 -0.54799998 8
3.4790001 -2.128 -0.49900001 7
3.628 -2.204 -0.45100001 7
0 0 0 50
3.9679999 -2.3800001 -0.34400001 7
4.165 -2.484 -0.285 6
3.3570001 -2.0369999 -0.542 7
3.4990001 -2.1059999 -0.498 8
3.638 -2.174 -0.44800001 6
3.8099999 -2.2620001 -0.398 7
3.9860001 -2.352 -0.34200001 8
4.1739998 -2.45 -0.28200001 6
3.362 -2.006 -0.53899997 7
3.4960001 -2.0699999 -0.493 7
3.652 -2.1459999 -0.44600001 7
3.8239999 -2.233 -0.396 8
4.0029998 -2.323 -0.34 9
4.1900001 -2.4189999 -0.27900001 7
3.3770001 -1.982 -0.537 7
3.5209999 -2.05 -0.493 8
3.6819999 -2.128 -0.44600001 9
3.8310001 -2.2 -0.39199999 6
4.0250001 -2.2969999 -0.338 5
4.198 -2.382 -0.27599999 8
3.4130001 -1.969 -0.53799999 9
3.53 -2.02 -0.49000001 7
3.675 -2.0880001 -0.44100001 7
0 0 0 50
4.0240002 -2.257 -0.33399999 6
4.2160001 -2.352 -0.273 7
3.415 -1.936 -0.53399998 8
3.5450001 -1.994 -0.48699999 8
3.6900001 -2.0599999 -0.43900001 6
3.8559999 -2.138 -0.38699999 7
4.0409999 -2.227 -0.33199999 6
4.2340002 -2.3199999 -0.27000001 8
3.4289999 -1.909 -0.53100002 7
3.55 -1.961 -0.484 7
3.711 -2.0350001 -0.43599999 8
3.872 -2.109 -0.384 7
4.0539999 -2.194 -0.32800001 8
4.243 -2.283 -0.26699999 8
3.4289999 -1.875 -0.52700001 7
3.5580001 -1.9299999 -0.47999999 7
3.717 -2.0009999 -0.433 8
3.8829999 -2.0769999 -0.38100001 6
4.0650001 -2.161 -0.32499999 5
4.257 -2.25 -0.264 8
3.4449999 -1.849 -0.52499998 8
3.573 -1.903 -0.47799999 7
3.734 -1.974 -0.43000001 8
3.9130001 -2.0539999 -0.38 9
0 0 0 50
4.277 -2.2179999 -0.26100001 7
3.4779999 -1.831 -0.52499998 8
3.5940001 -1.878 -0.47600001 8
3.744 -1.942 -0.42699999 8
3.9189999 -2.0179999 -0.37599999 8
4.1020002 -2.0999999 -0.31999999 8
4.2909999 -2.1830001 -0.25799999 6
3.4860001 -1.801 -0.52100003 9
3.6040001 -1.847 -0.47299999 7
3.7590001 -1.913 -0.42399999 7
3.938 -1.99 -0.373 8
4.1149998 -2.066 -0.31600001 8
4.3169999 -2.155 -0.255 9
3.4960001 -1.771 -0.51800001 9
3.612 -1.8150001 -0.46900001 7
3.7780001 -1.885 -0.42199999 7
3.9460001 -1.955 -0.37 7
4.1360002 -2.036 -0.31400001 8
4.323 -2.1159999 -0.252 7
3.506 -1.7410001 -0.51499999 8
3.654 -1.8 -0.47 7
3.8169999 -1.867 -0.42199999 8
3.9660001 -1.926 -0.36700001 7
0 0 0 50
4.3400002 -2.082 -0.248 7
3.5220001 -1.714 -0.51200002 8
3.6630001 -1.768 -0.46599999 8
3.8150001 -1.8279999 -0.417 7
3.9790001 -1.893 -0.36399999 7
4.1539998 -1.964 -0.30599999 7
4.3540001 -2.0469999 -0.245 8
3.5369999 -1.686 -0.50999999 7
3.661 -1.7309999 -0.461 6
3.812 -1.789 -0.412 7
3.99 -1.86 -0.36000001 6
4.1789999 -1.9349999 -0.30399999 8
4.3649998 -2.01 -0.241 6
3.5550001 -1.659 -0.50700003 8
3.677 -1.7029999 -0.45899999 7
3.8199999 -1.756 -0.40799999 6
4.006 -1.8279999 -0.35699999 7
4.1929998 -1.901 -0.301 6
4.3930001 -1.98 -0.23899999 7
3.562 -1.627 -0.50400001 7
3.7079999 -1.6799999 -0.458 7
3.839 -1.726 -0.40599999 6
4.0159998 -1.794 -0.354 6
0 0 0 50
4.401 -1.942 -0.235 6
3.5780001 -1.599 -0.50099999 8
3.7249999 -1.651 -0.45500001 7
3.8559999 -1.697 -0.403 5
4.0320001 -1.762 -0.35100001 6
4.217 -1.831 -0.294 6
4.4219999 -1.908 -0.23199999 7
3.599 -1.573 -0.49900001 8
3.734 -1.619 -0.45199999 7
3.8770001 -1.668 -0.40099999 7
4.0479999 -1.729 -0.34799999 7
4.2319999 -1.7970001 -0.29100001 7
4.441 -1.874 -0.228 7
3.6110001 -1.5420001 -0.49599999 7
3.7509999 -1.589 -0.449 8
3.8870001 -1.635 -0.39700001 7
4.0630002 -1.697 -0.345 6
4.2579999 -1.767 -0.28799999 8
4.4489999 -1.835 -0.22499999 7
3.6199999 -1.511 -0.493 7
3.767 -1.5599999 -0.447 7
3.8989999 -1.602 -0.39399999 6
4.0780001 -1.664 -0.34200001 6
4.2670002 -1.73 -0.285 5
0 0 0 50
3.6389999 -1.484 -0.491 8
3.7780001 -1.528 -0.44400001 7
3.9219999 -1.574 -0.39199999 7
4.0900002 -1.631 -0.33899999 6
4.2810001 -1.696 -0.28099999 6
4.4759998 -1.762 -0.21799999 10
3.6459999 -1.451 -0.48699999 7
3.7809999 -1.493 -0.43900001 7
3.9530001 -1.55 -0.391 8
4.1100001 -1.6 -0.336 7
4.3000002 -1.663 -0.278 8
4.5050001 -1.732 -0.21600001 7
3.6659999 -1.424 -0.486 8
3.7809999 -1.457 -0.435 7
3.948 -1.51 -0.38699999 7
4.1209998 -1.566 -0.333 6
4.3070002 -1.626 -0.27500001 5
4.5229998 -1.697 -0.213 8
3.6689999 -1.39 -0.48199999 7
3.8099999 -1.432 -0.43399999 8
3.9519999 -1.475 -0.38299999 6
0 0 0 50
4.3249998 -1.592 -0.27200001 7
4.5300002 -1.658 -0.20900001 7
3.6860001 -1.362 -0.47999999 8
3.819 -1.399 -0.43099999 7
3.9779999 -1.447 -0.38100001 7
4.145 -1.497 -0.32699999 6
4.3410001 -1.558 -0.26899999 6
4.5349998 -1.618 -0.206 5
3.6949999 -1.33 -0.477 7
3.8429999 -1.372 -0.43000001 7
3.9879999 -1.414 -0.37799999 7
4.164 -1.466 -0.32499999 6
4.3530002 -1.522 -0.266 6
4.552 -1.582 -0.20299999 6
3.7090001 -1.3 -0.47400001 7
3.8529999 -1.34 -0.42699999 7
4.0240002 -1.388 -0.37799999 8
4.177 -1.431 -0.322 7
4.3709998 -1.488 -0.264 6
4.5780001 -1.549 -0.2 7
3.7279999 -1.272 -0.47299999 8
0 0 0 50
4.0139999 -1.349 -0.373 7
4.1880002 -1.397 -0.31900001 7
4.381 -1.452 -0.26100001 6
4.5910001 -1.512 -0.197 7
3.74 -1.2410001 -0.47099999 8
3.858 -1.27 -0.41999999 6
4.0190001 -1.313 -0.37 7
4.198 -1.362 -0.31600001 5
4.3930001 -1.416 -0.25799999 5
4.6030002 -1.474 -0.19400001 6
3.7460001 -1.2079999 -0.46799999 6
3.904 -1.249 -0.421 6
4.0409999 -1.283 -0.36899999 6
4.2259998 -1.3329999 -0.315 6
4.4039998 -1.38 -0.255 5
4.6230001 -1.439 -0.192 7
3.757 -1.177 -0.465 5
3.8800001 -1.206 -0.41499999 5
4.0479999 -1.249 -0.366 6
4.2309999 -1.296 -0.31200001 6
4.415 -1.3430001 -0.25299999 4
4.6329999 -1.401 -0.189 6
0 0 0 50
3.9219999 -1.183 -0.41600001 6
4.0549998 -1.214 -0.36300001 6
4.2319999 -1.258 -0.30899999 5
4.4400001 -1.311 -0.25099999 6
4.6550002 -1.3660001 -0.18700001 7
3.78 -1.115 -0.461 7
3.9219999 -1.148 -0.41299999 6
4.0710001 -1.182 -0.361 6
4.2610002 -1.228 -0.308 5
4.4460001 -1.273 -0.248 5
4.6729999 -1.33 -0.185 7
3.7909999 -1.084 -0.45899999 6
3.9319999 -1.115 -0.41100001 7
4.0910001 -1.151 -0.36000001 6
4.2670002 -1.192 -0.30500001 5
4.46 -1.237 -0.24600001 6
4.6789999 -1.29 -0.182 7
3.803 -1.052 -0.458 6
3.9170001 -1.075 -0.40599999 4
4.0960002 -1.1160001 -0.35699999 6
4.2820001 -1.158 -0.303 6
4.4679999 -1.2 -0.244 5
4.6890001 -1.251 -0.18000001 6
3.8039999 -1.018 -0.45500001 6
3.9419999 -1.046 -0.40599999 6
0 0 0 50
4.283 -1.12 -0.301 5
4.493 -1.1670001 -0.242 5
4.7199998 -1.2180001 -0.178 7
3.8199999 -0.98799998 -0.454 6
3.971 -1.0190001 -0.40599999 7
4.1220002 -1.05 -0.354 6
4.3049998 -1.0880001 -0.30000001 6
4.4970002 -1.1289999 -0.23999999 5
4.7210002 -1.177 -0.176 7
3.835 -0.958 -0.45300001 6
3.973 -0.98400003 -0.40400001 6
4.132 -1.016 -0.352 6
4.3119998 -1.052 -0.29800001 5
4.5 -1.091 -0.23800001 5
4.7249999 -1.138 -0.17399999 6
3.835 -0.92400002 -0.44999999 7
0 0 0 50
4.1370001 -0.98100001 -0.34999999 6
4.3189998 -1.017 -0.296 6
4.5180001 -1.056 -0.236 6
4.7290001 -1.099 -0.17200001 6
3.855 -0.89600003 -0.44999999 6
3.9809999 -0.917 -0.40000001 5
4.1420002 -0.94700003 -0.34900001 5
4.3309999 -0.98199999 -0.294 6
4.5279999 -1.02 -0.235 6
4.7360001 -1.0599999 -0.17 5
3.8529999 -0.86199999 -0.44800001 6
3.9979999 -0.88599998 -0.39899999 6
4.1589999 -0.91500002 -0.34799999 6
4.3470001 -0.949 -0.29300001 6
4.5419998 -0.98400003 -0.234 6
4.77 -1.027 -0.169 7
3.865 -0.83099997 -0.447 6
4.02 -0.85699999 -0.39899999 7
4.178 -0.88300002 -0.347 6
4.3499999 -0.91299999 -0.292 6
4.5510001 -0.94800001 -0.23199999 6
0 0 0 50
3.8740001 -0.79900002 -0.44600001 6
3.997 -0.81800002 -0.39500001 5
4.1609998 -0.84399998 -0.34400001 6
4.3579998 -0.87699997 -0.28999999 5
4.5580001 -0.91100001 -0.23100001 6
4.77 -0.94599998 -0.16599999 6
3.875 -0.76599997 -0.44400001 6
4.0219998 -0.78799999 -0.396 6
4.1750002 -0.81099999 -0.34400001 6
4.3740001 -0.84399998 -0.28999999 6
4.5650001 -0.87400001 -0.23 6
4.7839999 -0.90899998 -0.16500001 6
3.892 -0.736 -0.44400001 6
4.039 -0.75700003 -0.396 7
4.184 -0.77700001 -0.34299999 6
4.375 -0.80699998 -0.28799999 5
4.5700002 -0.83600003 -0.228 5
4.789 -0.87 -0.163 8
3.8989999 -0.704 -0.44299999 6
4.0469999 -0.72399998 -0.39500001 7
4.1939998 -0.74400002 -0.34200001 6
4.382 -0.77100003 -0.287 6
4.5840001 -0.801 -0.228 6
0 0 0 50
3.905 -0.67199999 -0.44299999 6
4.0489998 -0.69 -0.39399999 6
4.2069998 -0.71100003 -0.34200001 6
4.3899999 -0.736 -0.287 5
4.5939999 -0.76499999 -0.227 5
4.809 -0.79400003 -0.162 7
3.9119999 -0.63999999 -0.442 6
4.0689998 -0.66000003 -0.39500001 6
4.2189999 -0.67799997 -0.34200001 6
4.3979998 -0.70099998 -0.28600001 4
4.5970001 -0.727 -0.226 5
4.8109999 -0.755 -0.161 6
3.9070001 -0.60600001 -0.44100001 6
4.0570002 -0.62400001 -0.39199999 6
4.2160001 -0.64200002 -0.34 6
4.3969998 -0.66399997 -0.285 4
4.6090002 -0.69 -0.226 6
4.8319998 -0.71799999 -0.161 7
3.9200001 -0.57499999 -0.44100001 6
4.059 -0.58999997 -0.39199999 5
4.2210002 -0.60799998 -0.34 5
4.4180002 -0.63099998 -0.28600001 5
4.612 -0.653 -0.22499999 6
4.8239999 -0.67799997 -0.16 6
3.9300001 -0.54400003 -0.44100001 6
4.0539999 -0.55599999 -0.38999999 5
4.2210002 -0.57300001 -0.33899999 5
4.4159999 -0.59399998 -0.285 6
4.6160002 -0.616 -0.22499999 5
4.8390002 -0.63999999 -0.16 6
3.9349999 -0.51200002 -0.44100001 6
0 0 0 50
4.2379999 -0.54100001 -0.34 6
4.4219999 -0.55900002 -0.285 5
4.6209998 -0.579 -0.22499999 5
4.8340001 -0.60100001 -0.15899999 5
3.9360001 -0.47999999 -0.44100001 6
4.0580001 -0.49000001 -0.38999999 4
4.237 -0.50599998 -0.34 3
4.421 -0.523 -0.28400001 4
4.6269999 -0.54299998 -0.22499999 5
4.8410001 -0.56300002 -0.15899999 6
3.941 -0.44800001 -0.44100001 6
4.0700002 -0.458 -0.38999999 5
4.2360001 -0.472 -0.33899999 4
4.4299998 -0.48899999 -0.285 5
4.6329999 -0.50599998 -0.22499999 4
4.8460002 -0.52499998 -0.15899999 6
3.95 -0.417 -0.44100001 6
4.099 -0.428 -0.39300001 6
4.2470002 -0.43900001 -0.34 5
4.4390001 -0.454 -0.285 4
4.6339998 -0.46900001 -0.22499999 5
4.8499999 -0.486 -0.16 6
3.9549999 -0.38499999 -0.442 5
0 0 0 50
4.2490001 -0.405 -0.34 6
4.4400001 -0.419 -0.285 5
4.638 -0.433 -0.22499999 5
4.8569999 -0.449 -0.16 6
3.951 -0.35299999 -0.442 6
4.079 -0.36000001 -0.391 5
4.2709999 -0.373 -0.34200001 3
4.4460001 -0.384 -0.28600001 5
4.6459999 -0.39700001 -0.226 4
4.8569999 -0.41100001 -0.16 6
3.9549999 -0.322 -0.442 6
4.0770001 -0.32699999 -0.391 4
4.2540002 -0.338 -0.34099999 5
4.441 -0.34799999 -0.28600001 5
4.6399999 -0.36000001 -0.226 5
4.8629999 -0.373 -0.161 6
3.957 -0.28999999 -0.442 6
4.0949998 -0.29699999 -0.39300001 5
4.2519999 -0.30399999 -0.34099999 5
4.4390001 -0.31299999 -0.28600001 4
4.6500001 -0.32499999 -0.227 5
4.8649998 -0.336 -0.161 5
3.96 -0.259 -0.44299999 6
4.0830002 -0.26300001 -0.39199999 5
4.2620001 -0.271 -0.34200001 6
0 0 0 50
4.6490002 -0.28799999 -0.227 4
4.8699999 -0.29800001 -0.162 6
3.9460001 -0.227 -0.442 6
4.0830002 -0.23199999 -0.39300001 5
4.2519999 -0.237 -0.34200001 5
4.4510002 -0.245 -0.28799999 4
4.645 -0.252 -0.228 5
4.869 -0.26100001 -0.163 5
3.957 -0.19599999 -0.44400001 6
4.0890002 -0.2 -0.39399999 5
4.2579999 -0.205 -0.34299999 5
4.448 -0.20999999 -0.28799999 4
4.6539998 -0.21699999 -0.229 6
4.8779998 -0.223 -0.164 5
3.964 -0.16500001 -0.44499999 6
4.0819998 -0.167 -0.39399999 5
4.2600002 -0.171 -0.34400001 5
4.4530001 -0.176 -0.28999999 3
4.6490002 -0.18000001 -0.23 5
4.8860002 -0.186 -0.16500001 4
3.9660001 -0.13500001 -0.447 6
4.1020002 -0.13699999 -0.39700001 5
4.2550001 -0.139 -0.34400001 5
4.4510002 -0.142 -0.28999999 4
4.6550002 -0.145 -0.23100001 4
4.882 -0.149 -0.16599999 6
3.9690001 -0.104 -0.44800001 6
4.092 -0.105 -0.39700001 5
4.2690001 -0.106 -0.347 6
4.4580002 -0.108 -0.292 6
4.6539998 -0.11 -0.23199999 4
4.888 -0.113 -0.167 6
3.9649999 -0.074000001 -0.44800001 7
0 0 0 50
4.2600002 -0.074000001 -0.347 6
4.4499998 -0.075000003 -0.29300001 4
4.6570001 -0.075000003 -0.233 5
4.8829999 -0.075999998 -0.168 5
3.9619999 -0.043000001 -0.449 7
4.0890002 -0.041999999 -0.39899999 5
4.2579999 -0.041999999 -0.34799999 5
4.447 -0.041000001 -0.29300001 5
4.6659999 -0.039999999 -0.235 3
4.881 -0.039000001 -0.17 5
3.961 -0.013 -0.44999999 6
4.1149998 -0.012 -0.40200001 6
4.2639999 -0.0099999998 -0.34999999 4
4.4699998 -0.0070000002 -0.296 3
4.6659999 -0.0049999999 -0.236 3
4.8800001 -0.003 -0.171 7
3.9649999 0.016000001 -0.45199999 6
4.1040001 0.018999999 -0.403 6
4.2620001 0.022 -0.35100001 5
4.4460001 0.025 -0.296 5
4.6620002 0.028000001 -0.237 3
4.869 0.032000002 -0.17200001 6
3.967 0.046 -0.45300001 7
4.0799999 0.048999999 -0.40200001 5
0 0 0 50
4.447 0.057 -0.29699999 4
4.6529999 0.061999999 -0.23800001 5
4.8709998 0.067000002 -0.17399999 5
3.9679999 0.075000003 -0.45500001 6
4.112 0.079999998 -0.40599999 6
4.2579999 0.085000001 -0.35299999 5
4.4580002 0.090999998 -0.30000001 5
4.6589999 0.097000003 -0.23999999 4
4.8720002 0.103 -0.175 5
3.9619999 0.105 -0.456 7
4.1160002 0.11 -0.40799999 6
4.2620001 0.116 -0.35499999 5
4.4499998 0.123 -0.301 4
4.6609998 0.13 -0.242 5
4.882 0.138 -0.177 6
3.9649999 0.134 -0.458 6
4.1220002 0.14 -0.41 6
4.2620001 0.147 -0.35699999 5
4.4559999 0.155 -0.303 5
0 0 0 50
4.8699999 0.17299999 -0.178 6
3.957 0.163 -0.458 7
4.1030002 0.17 -0.41 6
4.2509999 0.177 -0.35699999 4
4.4520001 0.18700001 -0.30399999 5
4.6609998 0.197 -0.245 3
4.875 0.208 -0.18000001 6
3.9590001 0.191 -0.46000001 7
4.105 0.199 -0.412 6
4.2490001 0.208 -0.359 5
4.4510002 0.219 -0.30500001 6
4.6490002 0.23 -0.24600001 4
4.8670001 0.242 -0.18099999 6
3.954 0.22 -0.461 6
0 0 0 50
4.277 0.23999999 -0.36300001 3
4.447 0.25 -0.30700001 6
4.6529999 0.26300001 -0.248 4
4.8699999 0.27700001 -0.183 4
3.9579999 0.248 -0.463 7
4.1020002 0.25799999 -0.41499999 6
4.2620001 0.26899999 -0.36300001 6
4.4489999 0.28099999 -0.30899999 5
4.652 0.29499999 -0.249 4
4.8699999 0.31099999 -0.185 4
3.9489999 0.27599999 -0.46399999 7
4.0869999 0.28600001 -0.41499999 6
4.27 0.29899999 -0.36500001 6
4.4489999 0.31299999 -0.31 5
4.6529999 0.32800001 -0.25099999 5
4.8720002 0.345 -0.18700001 5
3.954 0.30399999 -0.46599999 7
4.1030002 0.31600001 -0.41800001 7
4.257 0.32800001 -0.366 5
4.4439998 0.34299999 -0.31200001 4
4.6529999 0.36000001 -0.25299999 4
4.869 0.37799999 -0.18799999 5
0 0 0 50
4.0999999 0.34400001 -0.419 7
4.2519999 0.35699999 -0.36700001 6
4.4460001 0.37400001 -0.31299999 5
4.6469998 0.391 -0.25400001 4
4.8660002 0.41100001 -0.19 5
3.941 0.35699999 -0.46799999 7
4.0879998 0.37099999 -0.41999999 6
4.25 0.38600001 -0.36899999 5
4.448 0.40400001 -0.315 4
4.6550002 0.42399999 -0.25600001 5
4.8730001 0.44400001 -0.192 5
3.9579999 0.38600001 -0.47099999 7
4.0960002 0.40000001 -0.42199999 7
4.2659998 0.417 -0.37200001 6
4.4450002 0.43399999 -0.31600001 5
4.6469998 0.454 -0.25799999 4
4.8629999 0.47600001 -0.193 5
3.9460001 0.412 -0.472 6
4.1279998 0.43099999 -0.42699999 6
4.256 0.44400001 -0.37200001 6
4.461 0.465 -0.31900001 3
4.6539998 0.486 -0.259 6
4.875 0.509 -0.19499999 7
3.938 0.43799999 -0.47299999 7
4.1199999 0.45699999 -0.428 7
0 0 0 50
4.461 0.495 -0.32100001 4
4.6529999 0.51599997 -0.26100001 6
4.8670001 0.54100001 -0.19599999 5
3.947 0.465 -0.47499999 7
4.1160002 0.484 -0.42899999 6
4.2519999 0.5 -0.375 6
4.441 0.52200001 -0.32100001 5
4.6500001 0.54699999 -0.26199999 5
4.869 0.57300001 -0.197 7
3.9530001 0.49200001 -0.477 7
4.0910001 0.50800002 -0.428 6
4.244 0.52700001 -0.37599999 5
4.4549999 0.55299997 -0.32300001 4
4.6620002 0.57800001 -0.264 7
4.8639998 0.60399997 -0.199 6
3.9400001 0.51599997 -0.477 7
4.0929999 0.53500003 -0.42899999 6
4.25 0.55500001 -0.37799999 6
4.4390001 0.579 -0.32300001 5
4.6469998 0.60600001 -0.264 6
4.8660002 0.63499999 -0.2 6
3.941 0.56599998 -0.47999999 6
4.0760002 0.58499998 -0.43000001 6
4.257 0.61000001 -0.38100001 6
4.4450002 0.63599998 -0.32600001 6
4.6490002 0.66500002 -0.26699999 5
4.8610001 0.69499999 -0.20200001 5
3.9389999 0.59100002 -0.48100001 7
4.1199999 0.61699998 -0.43599999 7
4.2719998 0.639 -0.38299999 7
4.4380002 0.66299999 -0.32699999 5
4.6500001 0.69400001 -0.26800001 5
4.8660002 0.72600001 -0.20299999 5
3.951 0.61699998 -0.48300001 7
4.118 0.64200002 -0.43700001 7
4.2529998 0.662 -0.38299999 5
0 0 0 50
4.652 0.722 -0.26899999 6
4.8600001 0.75400001 -0.204 5
3.9579999 0.64200002 -0.48500001 6
4.1030002 0.66399997 -0.43599999 6
4.2420001 0.68599999 -0.382 4
4.4359999 0.71600002 -0.32800001 5
4.651 0.75 -0.27000001 5
4.8709998 0.78500003 -0.205 6
3.9449999 0.66399997 -0.484 7
4.1220002 0.69199997 -0.43900001 7
4.2480001 0.71200001 -0.384 5
4.4400001 0.74299997 -0.329 5
4.6539998 0.778 -0.271 5
4.8709998 0.81300002 -0.205 6
3.951 0.68800002 -0.486 7
4.1160002 0.71499997 -0.43900001 7
4.25 0.73699999 -0.38499999 5
4.4380002 0.76800001 -0.33000001 4
4.6570001 0.80500001 -0.271 6
0 0 0 50
3.937 0.708 -0.48500001 7
4.0879998 0.73400003 -0.43700001 6
4.2490001 0.76099998 -0.38499999 5
4.447 0.79500002 -0.331 5
4.6560001 0.83099997 -0.27200001 5
4.8670001 0.86799997 -0.206 4
3.944 0.73199999 -0.486 7
4.0999999 0.759 -0.43799999 7
4.2540002 0.78600001 -0.38600001 5
4.448 0.81999999 -0.331 5
4.6570001 0.85699999 -0.27200001 6
4.8769999 0.89700001 -0.207 5
3.954 0.75599998 -0.48800001 6
4.0910001 0.77999997 -0.43799999 6
4.257 0.81 -0.38600001 5
4.467 0.84799999 -0.333 4
4.6620002 0.884 -0.27200001 6
4.8670001 0.92199999 -0.206 4
3.9549999 0.778 -0.48800001 7
4.098 0.80400002 -0.43900001 6
4.2540002 0.83200002 -0.38600001 5
4.4689999 0.87300003 -0.333 4
4.664 0.90899998 -0.27200001 6
0 0 0 50
3.944 0.79699999 -0.48699999 7
4.1009998 0.82599998 -0.43900001 6
4.2649999 0.85699999 -0.38699999 5
4.454 0.89300001 -0.33199999 6
4.6690001 0.935 -0.27200001 7
4.8969998 0.97899997 -0.207 6
3.96 0.82099998 -0.48899999 7
4.0900002 0.84500003 -0.43799999 6
4.2639999 0.87900001 -0.38600001 6
4.474 0.92000002 -0.333 4
4.6630001 0.958 -0.271 5
4.8920002 1.0039999 -0.206 7
3.954 0.83999997 -0.48800001 7
4.1030002 0.86900002 -0.43900001 8
4.2600002 0.89999998 -0.38600001 5
4.4679999 0.94199997 -0.33199999 5
4.6729999 0.98299998 -0.271 5
4.8979998 1.03 -0.205 5
3.9560001 0.86000001 -0.48800001 6
4.1129999 0.89099997 -0.43900001 6
4.2729998 0.92400002 -0.38600001 5
4.4699998 0.96399999 -0.331 6
0 0 0 50
4.9000001 1.054 -0.204 5
3.9519999 0.87800002 -0.48699999 6
4.1009998 0.90899998 -0.43700001 6
4.2740002 0.94499999 -0.38499999 5
4.4770002 0.98699999 -0.331 5
4.6849999 1.031 -0.27000001 5
4.9070001 1.079 -0.20299999 4
3.9909999 0.90600002 -0.49000001 6
4.1020002 0.92799997 -0.43599999 5
4.2839999 0.96700001 -0.38499999 6
4.494 1.012 -0.33000001 4
4.6929998 1.0549999 -0.26899999 6
4.9169998 1.104 -0.20200001 4
3.971 0.91900003 -0.48699999 6
4.1149998 0.94999999 -0.43700001 6
4.2909999 0.98799998 -0.38499999 5
4.4990001 1.033 -0.33000001 4
4.7020001 1.0779999 -0.26800001 5
4.927 1.128 -0.20100001 4
3.9890001 0.94099998 -0.48800001 6
4.1329999 0.972 -0.43700001 7
4.3109999 1.011 -0.38499999 4
4.5 1.053 -0.32800001 5
4.7020001 1.099 -0.266 7
4.9310002 1.151 -0.199 4
3.974 0.95499998 -0.48500001 6
0 0 0 50
4.3060002 1.028 -0.38299999 6
4.5050001 1.073 -0.32699999 6
4.7179999 1.122 -0.26499999 4
4.9429998 1.174 -0.197 5
4 0.977 -0.486 6
4.1290002 1.006 -0.433 5
4.3060002 1.046 -0.38100001 5
4.513 1.094 -0.32499999 4
4.723 1.143 -0.26300001 4
4.9429998 1.194 -0.19499999 4
3.9749999 0.98699999 -0.48100001 6
4.1479998 1.027 -0.433 4
4.329 1.069 -0.38100001 4
4.5250001 1.114 -0.324 4
4.7319999 1.163 -0.26100001 4
4.9580002 1.217 -0.193 4
3.997 1.007 -0.48199999 7
4.1399999 1.04 -0.43000001 5
4.3330002 1.086 -0.37900001 4
0 0 0 50
4.7410002 1.183 -0.259 4
4.9689999 1.239 -0.191 4
4.007 1.024 -0.48100001 6
4.145 1.056 -0.428 6
4.349 1.105 -0.377 4
4.546 1.153 -0.31999999 4
4.7529998 1.2029999 -0.257 6
4.98 1.2589999 -0.18799999 4
3.9949999 1.035 -0.477 6
4.158 1.074 -0.42699999 6
4.3579998 1.123 -0.37599999 4
4.5609999 1.1720001 -0.31799999 4
4.757 1.22 -0.25400001 4
4.9970002 1.28 -0.185 4
3.997 1.049 -0.47499999 5
4.1719999 1.091 -0.426 6
4.3600001 1.137 -0.373 6
0 0 0 50
4.77 1.239 -0.25099999 4
5.0079999 1.299 -0.182 4
4.0050001 1.063 -0.47299999 5
4.1739998 1.104 -0.42300001 4
4.375 1.154 -0.37099999 4
4.5700002 1.2029999 -0.31200001 4
4.7859998 1.258 -0.248 4
5.0240002 1.319 -0.178 4
4.0300002 1.081 -0.472 6
4.1890001 1.12 -0.421 5
4.3839998 1.169 -0.368 4
4.5890002 1.221 -0.30899999 4
4.8010001 1.276 -0.245 4
5.0349998 1.336 -0.175 4
4.027 1.091 -0.46900001 6
4.1939998 1.133 -0.41800001 5
4.3969998 1.1849999 -0.366 4
4.5960002 1.2359999 -0.30599999 4
4.8109999 1.291 -0.242 4
5.0549998 1.355 -0.171 4
0 0 0 50
4.1999998 1.145 -0.41499999 4
4.4070001 1.198 -0.36300001 4
4.6059999 1.25 -0.303 5
4.829 1.308 -0.23800001 4
5.0650001 1.37 -0.167 4
4.0489998 1.1160001 -0.46399999 5
4.211 1.158 -0.412 4
4.4200001 1.212 -0.36000001 4
4.6300001 1.267 -0.30000001 4
4.8410001 1.322 -0.234 4
5.0869999 1.388 -0.163 4
4.0489998 1.125 -0.461 5
4.2270002 1.171 -0.41 4
4.4320002 1.225 -0.35699999 4
4.6360002 1.278 -0.296 4
4.8559999 1.337 -0.23 4
5.1069999 1.404 -0.15899999 4
4.0630002 1.136 -0.458 5
4.2350001 1.181 -0.40700001 5
4.448 1.237 -0.35299999 4
4.6430001 1.289 -0.292 4
0 0 0 50
5.118 1.4170001 -0.154 4
4.073 1.146 -0.45500001 5
4.2519999 1.193 -0.40400001 5
4.4530001 1.2460001 -0.34900001 4
4.6609998 1.302 -0.28799999 4
4.8860002 1.362 -0.222 4
5.1370001 1.431 -0.149 4
4.0780001 1.153 -0.45100001 4
4.2789998 1.207 -0.40200001 4
4.4720001 1.258 -0.34599999 4
4.678 1.313 -0.28400001 4
4.908 1.376 -0.21799999 4
5.1529999 1.443 -0.14399999 4
4.0970001 1.164 -0.449 5
4.2750001 1.211 -0.39700001 4
4.4840002 1.267 -0.34200001 4
4.6939998 1.324 -0.28 4
4.9239998 1.387 -0.213 4
5.1830001 1.4579999 -0.139 4
4.1160002 1.173 -0.44600001 5
4.309 1.225 -0.39500001 4
4.5040002 1.277 -0.338 4
4.7049999 1.332 -0.27500001 4
0 0 0 50
5.1950002 1.467 -0.133 4
4.1240001 1.179 -0.442 5
4.3239999 1.233 -0.391 4
4.5149999 1.284 -0.33399999 4
4.723 1.341 -0.271 4
4.9590001 1.406 -0.20299999 4
5.217 1.477 -0.12800001 4
4.1300001 1.183 -0.43799999 5
4.3200002 1.234 -0.38600001 4
4.5339999 1.2920001 -0.33000001 4
4.7420001 1.349 -0.26699999 4
4.974 1.413 -0.198 4
5.2459998 1.489 -0.122 4
4.145 1.189 -0.435 6
4.348 1.244 -0.38299999 4
4.5409999 1.296 -0.32499999 4
4.756 1.355 -0.26199999 4
4.993 1.42 -0.192 4
5.2639999 1.4960001 -0.116 3
4.1599998 1.194 -0.43099999 6
4.3660002 1.25 -0.38 4
4.5599999 1.302 -0.32100001 4
4.7709999 1.36 -0.257 4
5.0149999 1.427 -0.18700001 4
5.2789998 1.501 -0.11 3
0 0 0 50
4.3699999 1.25 -0.375 4
4.5809999 1.308 -0.317 4
4.7859998 1.364 -0.252 4
5.0380001 1.434 -0.182 4
5.3010001 1.508 -0.104 4
4.1950002 1.202 -0.42399999 4
4.3899999 1.255 -0.37099999 4
4.5949998 1.311 -0.31200001 4
4.8150001 1.3710001 -0.24699999 4
5.0510001 1.436 -0.176 4
5.3189998 1.511 -0.097999997 4
4.2140002 1.206 -0.421 5
4.4060001 1.257 -0.366 4
4.6020002 1.3099999 -0.30599999 4
4.8340001 1.374 -0.242 4
5.0619998 1.437 -0.17 4
5.342 1.515 -0.092 4
4.2220001 1.205 -0.41600001 5
4.4219999 1.258 -0.36199999 4
4.6199999 1.312 -0.30199999 4
4.8429999 1.373 -0.236 4
5.0869999 1.441 -0.16500001 4
5.362 1.517 -0.085000001 4
4.2329998 1.204 -0.412 5
4.4349999 1.258 -0.35699999 4
4.6339998 1.312 -0.29699999 5
4.8540001 1.372 -0.23100001 5
0 0 0 50
5.3779998 1.517 -0.079000004 3
4.2480001 1.2029999 -0.40799999 6
4.4489999 1.257 -0.35299999 4
4.6529999 1.312 -0.292 4
4.8720002 1.3710001 -0.226 4
5.1269999 1.442 -0.153 4
5.4089999 1.52 -0.072999999 3
4.2589998 1.2 -0.403 5
4.461 1.2539999 -0.34900001 4
4.6690001 1.3099999 -0.287 4
4.8920002 1.37 -0.221 4
5.1420002 1.439 -0.147 4
5.4219999 1.516 -0.066 3
4.2779999 1.199 -0.40000001 5
4.4759998 1.251 -0.34400001 4
4.678 1.3049999 -0.28200001 4
4.9050002 1.3660001 -0.215 4
5.1669998 1.438 -0.142 4
5.447 1.515 -0.059999999 4
4.2839999 1.193 -0.39500001 5
4.4910002 1.247 -0.33899999 4
4.6950002 1.302 -0.27700001 4
4.928 1.364 -0.20999999 4
5.184 1.434 -0.13600001 4
5.4650002 1.51 -0.054000001 4
4.303 1.1900001 -0.391 5
0 0 0 50
4.7090001 1.296 -0.273 4
4.9390001 1.358 -0.205 4
5.204 1.429 -0.13 4
5.4850001 1.505 -0.046999998 4
4.3099999 1.182 -0.38699999 6
4.5229998 1.238 -0.331 4
4.7270002 1.291 -0.26800001 4
4.9569998 1.352 -0.199 4
5.224 1.423 -0.124 4
5.5 1.498 -0.041000001 3
4.3270001 1.176 -0.38299999 5
4.526 1.227 -0.32600001 4
4.744 1.284 -0.26300001 4
4.974 1.345 -0.19400001 4
5.2360001 1.414 -0.119 4
5.5159998 1.489 -0.035 3
4.3400002 1.169 -0.37900001 5
4.5479999 1.222 -0.322 4
4.7600002 1.276 -0.259 4
4.9879999 1.336 -0.189 4
5.2600002 1.4069999 -0.113 4
5.5440001 1.482 -0.028999999 4
4.3530002 1.16 -0.375 5
4.5570002 1.212 -0.317 4
4.7709999 1.266 -0.25400001 4
5.0029998 1.326 -0.184 4
5.277 1.397 -0.108 3
0 0 0 50
4.3559999 1.148 -0.37 5
4.5710001 1.202 -0.31299999 4
4.7870002 1.256 -0.249 4
5.0139999 1.314 -0.17900001 4
5.2839999 1.3839999 -0.102 4
5.5749998 1.459 -0.017000001 4
4.3730001 1.1390001 -0.36700001 6
4.5780001 1.189 -0.30899999 6
4.8010001 1.245 -0.245 4
5.0370002 1.304 -0.17399999 4
5.3010001 1.3710001 -0.097000003 4
5.5900002 1.446 -0.011 4
4.388 1.128 -0.36399999 5
4.5879998 1.177 -0.30500001 5
4.8080001 1.2309999 -0.23999999 4
5.0479999 1.291 -0.17 4
5.3210001 1.359 -0.092 4
5.6079998 1.432 -0.0060000001 4
4.3920002 1.114 -0.359 4
0 0 0 50
4.8179998 1.217 -0.236 5
5.059 1.276 -0.16500001 4
5.3330002 1.344 -0.086999997 4
5.6290002 1.4170001 0 4
4.4130001 1.103 -0.35699999 6
4.6170001 1.151 -0.29699999 4
4.8330002 1.2029999 -0.23199999 4
5.0739999 1.261 -0.161 4
5.3439999 1.327 -0.082000002 4
5.6389999 1.399 0.0040000002 4
4.421 1.087 -0.35299999 4
4.631 1.137 -0.294 4
4.8390002 1.186 -0.228 4
5.0809999 1.243 -0.156 4
5.3520002 1.308 -0.077 4
5.6560001 1.382 0.0089999996 4
4.428 1.072 -0.34900001 6
4.6350002 1.119 -0.28999999 4
4.8540001 1.17 -0.22400001 4
5.0960002 1.226 -0.152 4
5.3649998 1.29 -0.072999999 5
5.6700001 1.363 0.014 4
4.4390001 1.0549999 -0.34599999 5
4.6459999 1.102 -0.28600001 4
4.8629999 1.152 -0.22 5
0 0 0 50
5.3740001 1.27 -0.068000004 5
5.6820002 1.342 0.018999999 4
4.4369998 1.036 -0.34200001 5
4.6570001 1.085 -0.28299999 7
4.869 1.132 -0.21699999 4
5.1139998 1.188 -0.14399999 4
5.3899999 1.25 -0.064000003 4
5.6869998 1.319 0.023 4
4.4520001 1.0190001 -0.34 6
4.658 1.064 -0.27900001 6
4.8740001 1.1109999 -0.213 5
5.1209998 1.166 -0.14 4
5.395 1.227 -0.061000001 4
5.698 1.296 0.027000001 4
4.4629998 1.002 -0.33700001 6
4.6690001 1.045 -0.27700001 7
4.8829999 1.091 -0.20999999 6
5.138 1.147 -0.13699999 5
0 0 0 50
5.71 1.272 0.030999999 4
4.4660001 0.98100001 -0.33399999 7
4.6659999 1.023 -0.273 5
4.8940001 1.071 -0.207 5
5.1399999 1.123 -0.134 5
5.4130001 1.181 -0.052999999 4
5.7259998 1.249 0.035 4
4.4759998 0.96200001 -0.33199999 7
4.6799998 1.003 -0.271 7
4.8850002 1.045 -0.20299999 5
5.1370001 1.097 -0.131 5
5.4239998 1.1569999 -0.050000001 4
5.73 1.222 0.039000001 4
0 0 0 50
4.6789999 0.98000002 -0.26699999 7
4.8979998 1.023 -0.20100001 6
5.1529999 1.075 -0.12800001 5
5.4310002 1.132 -0.046999998 5
5.7379999 1.1950001 0.041999999 4
4.4780002 0.917 -0.32600001 5
4.691 0.958 -0.26499999 7
4.9089999 1.001 -0.198 5
5.1570001 1.049 -0.125 5
5.427 1.103 -0.044 5
5.7389998 1.165 0.045000002 4
4.4809999 0.89399999 -0.32300001 5
4.6880002 0.93300003 -0.26300001 6
4.9200001 0.977 -0.19599999 5
5.1560001 1.022 -0.122 5
5.441 1.077 -0.041000001 4
5.7420001 1.136 0.048 4
4.4949999 0.87300003 -0.322 6
4.691 0.90799999 -0.25999999 5
4.9239998 0.95099998 -0.19400001 4
5.1589999 0.995 -0.12 5
5.4419999 1.048 -0.039000001 5
5.757 1.108 0.050999999 4
4.4860001 0.84600002 -0.31900001 5
4.6900001 0.88200003 -0.25799999 5
4.9239998 0.92400002 -0.191 5
5.1589999 0.96700001 -0.117 4
0 0 0 50
5.7529998 1.075 0.052999999 5
4.5019999 0.824 -0.31799999 5
4.7020001 0.85799998 -0.257 5
4.9320002 0.898 -0.19 5
5.1760001 0.94099998 -0.116 5
5.4510002 0.98900002 -0.034000002 5
5.75 1.0420001 0.055 5
4.4980001 0.79799998 -0.31600001 5
4.7020001 0.83099997 -0.255 5
4.9359999 0.87099999 -0.18799999 5
5.1729999 0.91100001 -0.114 4
5.4510002 0.958 -0.032000002 5
5.7509999 1.0089999 0.057 5
4.5040002 0.773 -0.315 5
4.7059999 0.80500001 -0.25299999 6
4.9299998 0.84100002 -0.186 5
5.1760001 0.88099998 -0.112 5
5.4530001 0.92699999 -0.030999999 5
5.7480001 0.97600001 0.059 5
4.5209999 0.74900001 -0.31400001 7
4.7119999 0.778 -0.252 5
4.9299998 0.81199998 -0.184 4
5.177 0.85100001 -0.111 5
5.4530001 0.89399999 -0.028999999 4
5.7589998 0.94300002 0.059999999 5
4.507 0.71899998 -0.31200001 6
0 0 0 50
4.9349999 0.78299999 -0.183 5
5.1789999 0.81999999 -0.109 4
5.4619999 0.86299998 -0.028000001 5
5.756 0.90799999 0.061999999 4
4.5120001 0.69300002 -0.31099999 6
4.7090001 0.72100002 -0.249 6
4.934 0.75300002 -0.182 5
5.1750002 0.787 -0.108 4
5.4580002 0.829 -0.027000001 4
5.7610002 0.87300003 0.063000001 4
4.5209999 0.66600001 -0.31099999 7
4.7119999 0.69199997 -0.248 6
4.9380002 0.72299999 -0.18099999 5
5.1760001 0.75599998 -0.107 4
5.4499998 0.79299998 -0.026000001 4
5.7490001 0.83499998 0.063000001 5
4.5019999 0.63499999 -0.308 5
4.7140002 0.66299999 -0.24699999 5
4.934 0.69099998 -0.18000001 6
5.1739998 0.72299999 -0.106 4
5.4489999 0.759 -0.025 4
5.7529998 0.80000001 0.064000003 4
4.5009999 0.57800001 -0.30599999 5
4.7090001 0.602 -0.245 7
4.9260001 0.62699997 -0.178 5
5.1729999 0.65600002 -0.104 5
5.4419999 0.68800002 -0.023 4
5.743 0.72399998 0.064999998 5
4.5029998 0.54900002 -0.30599999 4
4.7049999 0.57099998 -0.245 5
4.9299998 0.59600002 -0.178 5
5.1700001 0.62199998 -0.104 4
5.4330001 0.65200001 -0.023 5
5.7389998 0.68599999 0.066 5
4.493 0.51800001 -0.30500001 5
4.7049999 0.54000002 -0.244 5
4.9260001 0.56300002 -0.177 6
5.1659999 0.588 -0.104 4
5.4419999 0.61699998 -0.023 5
0 0 0 50
4.494 0.48899999 -0.30399999 5
4.7010002 0.509 -0.243 6
4.9239998 0.52999997 -0.177 4
5.1589999 0.55299997 -0.103 4
5.428 0.57999998 -0.023 5
5.7189999 0.60799998 0.066 5
4.4860001 0.458 -0.303 4
4.6919999 0.477 -0.243 4
4.9159999 0.49700001 -0.176 5
5.1589999 0.51899999 -0.103 4
5.421 0.542 -0.023 5
5.7210002 0.56999999 0.066 5
4.4949999 0.42899999 -0.30399999 6
4.684 0.44400001 -0.242 4
4.9190001 0.46399999 -0.176 4
5.1560001 0.48300001 -0.103 4
5.427 0.50599998 -0.022 4
5.7160001 0.52999997 0.066 5
4.4749999 0.39700001 -0.30199999 4
4.6900001 0.41299999 -0.242 4
4.9120002 0.42899999 -0.176 4
5.151 0.44800001 -0.103 4
0 0 0 50
5.7049999 0.49000001 0.064999998 4
4.4749999 0.366 -0.30199999 5
4.6799998 0.38 -0.242 5
4.902 0.39500001 -0.176 4
5.1490002 0.412 -0.103 4
5.4070001 0.43000001 -0.023 4
5.6989999 0.44999999 0.064999998 5
4.4699998 0.33500001 -0.30199999 5
4.6830001 0.34799999 -0.242 5
4.9000001 0.361 -0.176 4
5.1399999 0.375 -0.103 4
5.4050002 0.39199999 -0.023 4
5.6810002 0.40900001 0.064999998 5
4.4689999 0.303 -0.30199999 5
4.6700001 0.31400001 -0.241 5
4.8959999 0.32600001 -0.176 4
5.1360002 0.33899999 -0.103 4
5.3959999 0.35299999 -0.023 5
5.6799998 0.368 0.064000003 5
4.4650002 0.271 -0.301 4
4.6739998 0.28099999 -0.242 4
4.8930001 0.29100001 -0.176 4
5.1300001 0.30199999 -0.103 4
5.388 0.31400001 -0.024 4
5.6729999 0.32699999 0.064000003 5
0 0 0 50
4.658 0.24699999 -0.241 5
4.8870001 0.25600001 -0.176 5
5.1290002 0.26499999 -0.103 4
5.3850002 0.27500001 -0.024 5
5.6599998 0.28600001 0.063000001 5
4.4439998 0.207 -0.301 5
4.652 0.213 -0.241 4
4.8800001 0.22 -0.176 5
5.1100001 0.227 -0.103 4
5.3759999 0.236 -0.024 4
5.664 0.245 0.061999999 5
4.4400001 0.175 -0.30000001 5
4.6560001 0.18000001 -0.241 4
4.8660002 0.185 -0.175 4
5.1090002 0.19 -0.104 5
5.3629999 0.19599999 -0.024 4
5.6539998 0.20299999 0.061999999 5
4.4439998 0.142 -0.301 5
4.6440001 0.145 -0.241 5
4.8709998 0.149 -0.176 4
5.0939999 0.152 -0.104 4
5.3590002 0.156 -0.025 4
5.6459999 0.161 0.061000001 5
4.4400001 0.11 -0.301 4
0 0 0 50
4.8639998 0.113 -0.176 5
5.0939999 0.115 -0.104 5
5.3520002 0.117 -0.026000001 4
5.6440001 0.119 0.061000001 5
4.427 0.077 -0.30000001 5
4.6339998 0.077 -0.241 5
4.8569999 0.077 -0.176 5
5.0929999 0.077 -0.105 4
5.3439999 0.077 -0.026000001 5
5.6389999 0.077 0.059999999 5
4.4250002 0.044 -0.30000001 5
4.6279998 0.041999999 -0.241 5
4.842 0.039999999 -0.176 4
5.086 0.039000001 -0.105 5
5.349 0.035999998 -0.026000001 5
5.6360002 0.034000002 0.059999999 5
4.4260001 0.011 -0.301 5
4.6300001 0.0080000004 -0.242 4
4.842 0.0040000002 -0.176 4
5.0879998 0.001 -0.105 6
5.3449998 -0.0020000001 -0.027000001 6
5.6290002 -0.0070000002 0.059 6
4.414 -0.022 -0.30000001 4
4.6290002 -0.026000001 -0.242 4
4.8400002 -0.030999999 -0.177 4
5.0819998 -0.037 -0.106 5
5.3429999 -0.043000001 -0.027000001 5
0 0 0 50
4.4099998 -0.054000001 -0.30000001 5
4.618 -0.061000001 -0.242 4
4.8340001 -0.068000004 -0.177 4
5.0799999 -0.075000003 -0.106 4
5.3530002 -0.083999999 -0.027000001 5
5.6199999 -0.093000002 0.057999998 5
4.4130001 -0.088 -0.301 6
4.6160002 -0.096000001 -0.242 4
4.8390002 -0.105 -0.177 4
5.0640001 -0.114 -0.106 5
5.3629999 -0.125 -0.028000001 6
5.6209998 -0.13600001 0.057999998 5
4.4130001 -0.121 -0.301 6
4.6110001 -0.131 -0.242 4
4.8299999 -0.141 -0.177 4
0 0 0 50
5.3280001 -0.16500001 -0.028000001 5
5.6100001 -0.17900001 0.057999998 5
4.4000001 -0.155 -0.30000001 5
4.5910001 -0.16500001 -0.241 6
4.829 -0.178 -0.177 3
5.0640001 -0.192 -0.106 4
5.322 -0.206 -0.028000001 4
5.6020002 -0.222 0.057 5
4.4190001 -0.19 -0.30199999 6
4.5840001 -0.20100001 -0.241 5
4.8099999 -0.215 -0.177 4
5.059 -0.23100001 -0.106 4
5.3150001 -0.24699999 -0.028000001 4
5.5879998 -0.266 0.057 5
0 0 0 50
4.5780001 -0.236 -0.23999999 4
4.803 -0.252 -0.176 4
5.0450001 -0.26899999 -0.106 3
5.3000002 -0.28799999 -0.028000001 4
5.5689998 -0.30899999 0.057 5
4.3829999 -0.25600001 -0.29899999 4
4.5939999 -0.273 -0.241 6
4.8060002 -0.28999999 -0.177 4
5.0310001 -0.308 -0.106 4
5.2849998 -0.329 -0.028000001 4
5.553 -0.352 0.057 4
4.3829999 -0.28999999 -0.29899999 5
4.5739999 -0.30700001 -0.23999999 5
4.7979999 -0.32699999 -0.176 4
5.0209999 -0.347 -0.105 3
5.2789998 -0.37099999 -0.028000001 4
5.5409999 -0.39500001 0.057 4
4.388 -0.32499999 -0.30000001 5
4.5760002 -0.34400001 -0.23999999 4
4.7870002 -0.36399999 -0.176 4
5.0279999 -0.38800001 -0.106 4
5.2690001 -0.412 -0.028000001 4
5.5430002 -0.43900001 0.057 4
4.3899999 -0.36000001 -0.30000001 5
4.5739999 -0.38 -0.23999999 5
0 0 0 50
5.0139999 -0.426 -0.105 5
5.2620001 -0.454 -0.027000001 4
5.5359998 -0.48300001 0.057 4
4.3769999 -0.39399999 -0.29899999 5
4.573 -0.41600001 -0.23999999 5
4.7870002 -0.44 -0.175 4
5.0100002 -0.46599999 -0.105 4
5.2690001 -0.49599999 -0.027000001 4
5.5320001 -0.528 0.057999998 4
4.3740001 -0.428 -0.29899999 5
4.5700002 -0.45199999 -0.23899999 5
0 0 0 50
5.0110002 -0.50700003 -0.104 5
5.2529998 -0.53799999 -0.026000001 4
5.5300002 -0.57200003 0.057999998 5
4.3759999 -0.46399999 -0.29800001 5
4.5609999 -0.48800001 -0.23899999 4
4.7690001 -0.51599997 -0.17399999 5
5.0009999 -0.546 -0.104 3
5.2550001 -0.58099997 -0.026000001 4
5.5289998 -0.61799997 0.059 5
4.362 -0.498 -0.29699999 5
4.5560002 -0.52499998 -0.23800001 4
4.7729998 -0.55500001 -0.17399999 5
5.0029998 -0.588 -0.103 4
5.2480001 -0.62300003 -0.025 4
5.5180001 -0.662 0.059999999 5
4.3839998 -0.53600001 -0.29800001 6
4.5599999 -0.56199998 -0.23800001 5
4.7750001 -0.59399998 -0.17299999 4
5.0040002 -0.62900001 -0.102 4
5.2509999 -0.667 -0.024 4
5.5190001 -0.708 0.061000001 4
4.3649998 -0.56900001 -0.29699999 5
4.5570002 -0.59899998 -0.237 4
4.7740002 -0.63300002 -0.17200001 4
5.0009999 -0.66900003 -0.102 4
5.2459998 -0.70899999 -0.023 4
5.5170002 -0.75300002 0.061999999 4
0 0 0 50
4.5570002 -0.63599998 -0.237 5
4.7659998 -0.671 -0.17200001 4
4.9980001 -0.70999998 -0.101 4
5.2420001 -0.75199997 -0.022 4
5.5120001 -0.79799998 0.063000001 5
4.3590002 -0.63999999 -0.29499999 5
4.5469999 -0.67199999 -0.235 4
4.7680001 -0.71100003 -0.171 4
4.9920001 -0.75099999 -0.098999999 4
5.2410002 -0.79500002 -0.021 4
5.5079999 -0.84399998 0.064000003 5
4.3530002 -0.67500001 -0.294 4
4.5570002 -0.71200001 -0.235 3
4.7659998 -0.75 -0.17 5
4.9920001 -0.79299998 -0.097999997 4
5.2379999 -0.83899999 -0.02 4
5.5079999 -0.88999999 0.066 5
4.368 -0.713 -0.294 6
4.552 -0.74900001 -0.234 5
4.7600002 -0.78899997 -0.168 5
4.9910002 -0.83399999 -0.097000003 4
5.243 -0.884 -0.017999999 4
5.5139999 -0.93800002 0.067000002 4
4.3579998 -0.74900001 -0.29300001 5
4.552 -0.78799999 -0.233 5
0 0 0 50
4.9809999 -0.875 -0.096000001 4
5.2420001 -0.92900002 -0.017000001 4
5.5019999 -0.98400003 0.068999998 4
4.3499999 -0.78399998 -0.29100001 5
4.54 -0.824 -0.23100001 5
4.756 -0.87 -0.16599999 6
4.9910002 -0.91900003 -0.093999997 4
5.2309999 -0.97100002 -0.015 5
5.5120001 -1.0319999 0.071000002 5
4.3509998 -0.82099998 -0.28999999 6
4.54 -0.86199999 -0.23 5
4.7600002 -0.91100001 -0.16500001 4
4.9879999 -0.96200001 -0.093000002 4
5.2340002 -1.017 -0.014 4
5.5009999 -1.0779999 0.072999999 5
4.3530002 -0.85799998 -0.289 6
4.5359998 -0.89999998 -0.229 5
4.7589998 -0.95099998 -0.163 4
4.9829998 -1.003 -0.090999998 4
5.2410002 -1.063 -0.011 6
5.5120001 -1.128 0.075000003 5
4.3429999 -0.89300001 -0.287 6
4.5370002 -0.93900001 -0.227 5
4.757 -0.991 -0.162 5
0 0 0 50
5.2399998 -1.108 -0.0089999996 4
5.5170002 -1.176 0.078000002 5
4.3449998 -0.93099999 -0.28600001 5
4.5440001 -0.97899997 -0.226 5
4.7519999 -1.031 -0.16 5
4.9819999 -1.089 -0.086999997 4
5.2329998 -1.152 -0.0070000002 4
5.5149999 -1.224 0.079999998 5
4.3649998 -0.97299999 -0.28600001 6
4.5479999 -1.02 -0.22499999 5
4.7470002 -1.071 -0.15800001 4
4.9829998 -1.132 -0.085000001 4
5.2399998 -1.2 -0.0049999999 7
5.5149999 -1.273 0.082999997 5
4.355 -1.008 -0.28400001 6
4.54 -1.057 -0.223 5
4.7540002 -1.114 -0.156 4
4.9860001 -1.177 -0.082999997 4
0 0 0 50
5.5180001 -1.322 0.086000003 5
4.362 -1.048 -0.28299999 6
4.54 -1.097 -0.221 5
4.7540002 -1.156 -0.154 4
4.987 -1.221 -0.081 4
5.244 -1.293 0 4
5.5219998 -1.372 0.089000002 4
4.348 -1.0829999 -0.28099999 6
4.54 -1.137 -0.219 5
4.757 -1.199 -0.152 4
4.9980001 -1.268 -0.079000004 4
5.2449999 -1.34 0.0020000001 5
5.527 -1.423 0.092 5
4.3499999 -1.122 -0.27900001 6
4.5450001 -1.179 -0.21699999 5
4.7670002 -1.244 -0.15000001 5
4.993 -1.312 -0.075999998 4
5.2459998 -1.388 0.0049999999 4
5.5310001 -1.475 0.094999999 4
4.3470001 -1.16 -0.27700001 5
4.54 -1.2180001 -0.215 4
4.7600002 -1.285 -0.148 5
5.0029998 -1.36 -0.074000001 4
5.25 -1.437 0.0080000004 4
5.5279999 -1.524 0.097999997 4
4.382 -1.2079999 -0.278 7
4.5419998 -1.26 -0.213 5
4.7579999 -1.327 -0.145 5
4.9899998 -1.401 -0.071000002 4
5.2470002 -1.484 0.011 4
5.5419998 -1.579 0.102 5
4.348 -1.238 -0.27399999 5
4.552 -1.304 -0.211 5
0 0 0 50
5.0029998 -1.451 -0.068000004 4
5.2600002 -1.536 0.014 4
5.5419998 -1.63 0.106 5
4.3660002 -1.283 -0.273 6
4.5450001 -1.3430001 -0.20900001 4
4.7639999 -1.416 -0.141 4
5.0050001 -1.497 -0.064999998 4
5.2659998 -1.586 0.017000001 4
5.552 -1.684 0.11 5
4.3540001 -1.319 -0.27000001 5
4.559 -1.3890001 -0.207 4
4.7709999 -1.462 -0.138 4
5.0170002 -1.5470001 -0.061999999 4
5.263 -1.633 0.021 4
5.5570002 -1.737 0.114 5
