# .PCD v0.7 - Point Cloud Data file format
VERSION 0.7
FIELDS x y z intensity
SIZE 4 4 4 4
TYPE F F F F
COUNT 1 1 1 1
WIDTH 1772
HEIGHT 1
VIEWPOINT 0 0 0 1 0 0 0
POINTS 1772
DATA ascii
8.283 -0.61000001 1.2079999 87
8.2950001 -0.62900001 1.3430001 57
8.3979998 -0.65600002 1.4960001 0
13.926 -1.12 2.7090001 5
14.487 -1.198 3.0580001 8
8.349 -0.66100001 1.091 54
8.2840004 -0.67400002 1.214 76
8.2950001 -0.69300002 1.349 55
12.301 -1.056 2.2 1
13.958 -1.2309999 2.7249999 7
14.542 -1.317 3.0799999 2
8.3529997 -0.72500002 1.096 49
0 0 0 50
8.3149996 -0.759 1.358 36
12.361 -1.1569999 2.2190001 1
13.982 -1.3430001 2.74 8
14.698 -1.449 3.1240001 2
8.3800001 -0.792 1.105 34
8.3290005 -0.80599999 1.232 36
8.4139996 -0.833 1.38 9
12.379 -1.255 2.2309999 1
14.123 -1.467 2.7780001 11
14.787 -1.573 3.155 2
9.1149998 -0.93099999 1.2079999 2
8.4779997 -0.88499999 1.2589999 3
11.103 -1.1849999 1.829 1
12.441 -1.358 2.2520001 1
14.158 -1.58 2.796 10
15.001 -1.7130001 3.2130001 47
9.1850004 -1.008 1.224 1
10.065 -1.127 1.502 1
11.131 -1.273 1.842 1
12.437 -1.454 2.2609999 1
0 0 0 50
15.134 -1.847 3.2539999 22
9.2030001 -1.079 1.233 1
10.075 -1.206 1.511 1
11.169 -1.364 1.857 1
12.496 -1.557 2.2820001 1
14.205 -1.806 2.829 1
15.273 -1.983 3.2980001 7
9.2379999 -1.153 1.245 1
10.091 -1.284 1.521 1
11.174 -1.449 1.8660001 1
12.599 -1.666 2.3110001 1
14.286 -1.927 2.858 2
15.276 -2.102 3.313 2
9.2609997 -1.226 1.255 1
10.133 -1.3660001 1.536 1
11.253 -1.545 1.8890001 1
12.636 -1.768 2.329 1
14.377 -2.049 2.8889999 2
15.454 -2.2449999 3.365 2
9.2779999 -1.298 1.2640001 1
10.146 -1.444 1.546 1
11.311 -1.6390001 1.908 1
12.71 -1.874 2.3529999 1
14.515 -2.1800001 2.9300001 2
15.671 -2.398 3.428 6
9.2919998 -1.369 1.273 1
10.21 -1.53 1.564 1
11.379 -1.734 1.929 1
12.738 -1.975 2.3699999 1
14.538 -2.2939999 2.948 2
15.842 -2.5450001 3.48 12
9.3210001 -1.442 1.285 1
10.244 -1.6109999 1.5779999 1
11.392 -1.821 1.941 1
12.807 -2.082 2.3940001 1
14.653 -2.4230001 2.9849999 1
15.997 -2.691 3.53 12
9.3520002 -1.516 1.296 1
10.281 -1.692 1.592 1
11.423 -1.911 1.956 1
12.343 -2.099 2.319 6
12.179 -2.1059999 2.4920001 21
12.091 -2.1270001 2.6800001 22
0 0 0 50
10.278 -1.768 1.6 1
11.858 -2.072 2.0409999 2
12.242 -2.1730001 2.3110001 22
12.054 -2.174 2.4779999 44
12.008 -2.2019999 2.674 22
9.415 -1.664 1.321 1
10.328 -1.852 1.617 1
11.908 -2.168 2.0599999 3
12.087 -2.2349999 2.293 27
12.016 -2.257 2.4820001 24
11.931 -2.277 2.6689999 23
9.4329996 -1.735 1.331 1
10.389 -1.939 1.635 1
11.953 -2.263 2.079 4
12.033 -2.313 2.2939999 23
11.943 -2.3310001 2.4790001 22
11.874 -2.3540001 2.6670001 26
9.4700003 -1.8099999 1.344 1
10.411 -2.017 1.647 1
11.913 -2.3410001 2.082 8
11.952 -2.3840001 2.289 23
11.861 -2.402 2.473 22
11.804 -2.4260001 2.664 38
9.4989996 -1.883 1.3559999 1
10.52 -2.1129999 1.674 1
11.888 -2.4219999 2.0880001 9
11.881 -2.4549999 2.2869999 25
11.797 -2.474 2.471 24
11.741 -2.4990001 2.6619999 59
9.5209999 -1.955 1.367 1
10.462 -2.177 1.674 1
11.853 -2.5 2.0929999 16
11.803 -2.5239999 2.283 25
11.728 -2.543 2.4679999 24
11.653 -2.5650001 2.6530001 70
6.507 -1.381 0.93900001 0
10.519 -2.263 1.692 1
11.785 -2.569 2.0910001 25
11.732 -2.592 2.28 25
11.649 -2.6099999 2.4619999 24
11.578 -2.632 2.648 76
6.4809999 -1.421 0.94099998 15
10.824 -2.404 1.75 2
11.725 -2.6389999 2.0910001 22
11.665 -2.6600001 2.277 25
11.591 -2.6800001 2.4619999 24
11.511 -2.6989999 2.6440001 84
6.46 -1.462 0.94300002 18
10.945 -2.507 1.779 2
11.659 -2.7049999 2.089 26
11.6 -2.727 2.2750001 25
11.532 -2.7479999 2.46 24
11.451 -2.767 2.642 60
6.4039998 -1.493 0.94 20
11.102 -2.6199999 1.814 2
11.637 -2.7809999 2.095 26
11.541 -2.793 2.2739999 26
11.469 -2.812 2.457 24
11.373 -2.8269999 2.6340001 65
6.4039998 -1.5369999 0.94499999 21
11.112 -2.698 1.824 3
11.585 -2.848 2.096 23
11.481 -2.858 2.2720001 25
11.396 -2.8740001 2.4519999 24
11.307 -2.8889999 2.6300001 65
6.428 -1.586 0.954 18
10.971 -2.7379999 1.8099999 2
11.531 -2.9119999 2.096 8
11.417 -2.9200001 2.27 25
11.337 -2.9360001 2.4489999 24
11.252 -2.9530001 2.628 67
6.4060001 -1.623 0.95499998 8
10.997 -2.8180001 1.823 2
11.407 -2.957 2.082 23
11.358 -2.9809999 2.2679999 26
11.277 -2.997 2.4460001 25
11.184 -3.0109999 2.6229999 64
6.4299998 -1.6720001 0.963 1
11.052 -2.9059999 1.84 3
11.377 -3.0250001 2.086 24
11.296 -3.04 2.2650001 26
0 0 0 50
11.138 -3.072 2.622 68
9.8179998 -2.6159999 1.478 1
11.242 -3.0280001 1.88 5
11.321 -3.0840001 2.085 25
11.239 -3.0969999 2.2620001 26
11.167 -3.115 2.441 25
11.076 -3.128 2.6170001 92
9.8409996 -2.6860001 1.488 1
11.211 -3.092 1.883 4
11.267 -3.141 2.082 26
11.183 -3.154 2.2590001 27
11.114 -3.1719999 2.438 25
11.014 -3.1830001 2.6110001 85
9.8520002 -2.7509999 1.4960001 1
11.133 -3.142 1.877 8
11.197 -3.1930001 2.0780001 26
11.126 -3.2090001 2.256 27
11.063 -3.2279999 2.4360001 27
10.957 -3.2360001 2.6059999 86
9.8870001 -2.822 1.507 1
11.128 -3.2090001 1.883 8
11.141 -3.2460001 2.075 26
11.071 -3.2620001 2.2520001 27
11.021 -3.2839999 2.4349999 30
10.904 -3.2880001 2.602 85
9.8970003 -2.885 1.515 1
11.171 -3.2880001 1.897 6
11.094 -3.3 2.073 27
11.016 -3.312 2.2490001 27
10.961 -3.3329999 2.4289999 40
10.856 -3.3399999 2.598 85
10.151 -3.0190001 1.559 2
11.164 -3.3540001 1.902 7
11.036 -3.349 2.069 27
10.967 -3.3640001 2.2449999 27
10.905 -3.382 2.4230001 47
10.797 -3.3870001 2.5910001 85
10.208 -3.0969999 1.573 2
11.142 -3.4130001 1.905 8
10.989 -3.3989999 2.066 27
10.915 -3.4119999 2.24 27
10.857 -3.431 2.4189999 52
10.757 -3.437 2.5880001 84
10.257 -3.171 1.586 2
11.099 -3.4630001 1.903 16
10.939 -3.447 2.062 27
10.867 -3.4590001 2.2360001 27
10.812 -3.4779999 2.415 59
10.707 -3.483 2.582 83
10.294 -3.24 1.596 3
11.07 -3.516 1.903 19
10.894 -3.494 2.059 29
10.825 -3.506 2.233 29
10.763 -3.523 2.4089999 66
10.67 -3.5309999 2.579 91
10.349 -3.3139999 1.608 3
11.018 -3.5599999 1.898 22
10.854 -3.54 2.0550001 29
10.775 -3.549 2.227 29
10.723 -3.5680001 2.405 67
10.619 -3.572 2.572 84
10.422 -3.3940001 1.623 3
10.969 -3.6029999 1.8940001 22
10.802 -3.5810001 2.049 30
10.737 -3.5929999 2.224 29
10.668 -3.6059999 2.3970001 70
10.581 -3.6140001 2.5669999 85
10.41 -3.4430001 1.624 3
0 0 0 50
10.772 -3.6259999 2.0469999 29
10.701 -3.635 2.22 29
10.624 -3.645 2.391 72
10.539 -3.654 2.5599999 86
10.372 -3.483 1.62 4
10.891 -3.687 1.886 22
10.725 -3.6630001 2.0409999 29
10.658 -3.6730001 2.2130001 29
10.587 -3.6849999 2.385 76
10.511 -3.6960001 2.5569999 85
10.374 -3.5339999 1.623 3
10.851 -3.727 1.881 22
10.7 -3.7060001 2.0380001 29
10.633 -3.7160001 2.21 29
10.538 -3.7179999 2.3759999 77
10.463 -3.7279999 2.5469999 84
10.375 -3.5829999 1.624 4
10.813 -3.7639999 1.876 26
10.665 -3.744 2.033 30
10.605 -3.756 2.2060001 30
10.509 -3.757 2.372 77
10.455 -3.7739999 2.5469999 20
10.366 -3.628 1.623 4
10.775 -3.8 1.87 25
10.625 -3.7780001 2.026 31
10.57 -3.79 2.2 13
10.497 -3.799 2.3699999 26
10.427 -3.8099999 2.5409999 32
10.313 -3.655 1.615 3
0 0 0 50
10.599 -3.8139999 2.0209999 30
10.529 -3.8210001 2.191 30
10.463 -3.8310001 2.3629999 31
10.388 -3.839 2.5320001 32
10.324 -3.701 1.6160001 3
10.7 -3.8640001 1.857 21
10.563 -3.8440001 2.0150001 30
10.499 -3.8529999 2.1849999 31
10.433 -3.862 2.355 31
10.364 -3.872 2.526 33
10.306 -3.7360001 1.613 4
10.672 -3.8970001 1.851 25
10.534 -3.8759999 2.007 30
10.464 -3.8800001 2.1760001 33
10.407 -3.892 2.348 32
10.336 -3.9000001 2.517 33
10.276 -3.7650001 1.6059999 4
10.64 -3.925 1.8430001 22
10.518 -3.9089999 2.003 30
10.442 -3.9100001 2.1700001 32
10.378 -3.918 2.3399999 34
10.311 -3.927 2.5090001 33
10.261 -3.7969999 1.601 4
0 0 0 50
10.48 -3.931 1.993 30
10.419 -3.938 2.1619999 31
10.353 -3.944 2.3310001 33
10.285 -3.9519999 2.5 35
10.227 -3.8180001 1.5930001 3
10.599 -3.983 1.83 23
10.458 -3.957 1.985 31
10.392 -3.961 2.154 32
10.332 -3.9690001 2.323 34
10.267 -3.977 2.493 35
10.215 -3.8469999 1.5880001 4
0 0 0 50
10.436 -3.9809999 1.977 31
10.375 -3.9849999 2.1459999 32
10.317 -3.994 2.316 35
10.252 -4 2.484 36
10.186 -3.8659999 1.579 4
10.558 -4.0310001 1.8150001 22
10.425 -4.006 1.971 32
10.358 -4.007 2.138 32
10.303 -4.0159998 2.3080001 34
10.231 -4.0190001 2.4749999 35
10.162 -3.8840001 1.5700001 5
10.535 -4.0500002 1.806 21
10.403 -4.0240002 1.961 32
10.338 -4.026 2.1289999 32
10.287 -4.0339999 2.299 34
10.213 -4.0359998 2.4649999 36
10.136 -3.9000001 1.561 4
10.537 -4.0770001 1.801 23
10.391 -4.0440001 1.9529999 32
10.326 -4.0450001 2.1199999 33
10.279 -4.0539999 2.2909999 34
10.197 -4.0510001 2.454 36
10.125 -3.9189999 1.553 4
10.511 -4.0890002 1.79 22
10.373 -4.059 1.944 33
10.311 -4.0599999 2.1099999 33
10.272 -4.072 2.283 35
10.186 -4.066 2.4449999 37
10.078 -3.921 1.54 5
10.503 -4.1069999 1.781 23
10.368 -4.0760002 1.936 36
10.305 -4.0760002 2.102 34
10.267 -4.0869999 2.2739999 35
10.183 -4.0819998 2.437 38
10.074 -3.937 1.5319999 5
10.495 -4.1209998 1.772 22
10.356 -4.0879998 1.926 34
10.296 -4.0879998 2.092 33
10.259 -4.098 2.2650001 33
10.17 -4.0900002 2.4260001 38
10.042 -3.9400001 1.52 5
0 0 0 50
10.347 -4.099 1.916 36
10.28 -4.0949998 2.0810001 34
10.253 -4.1079998 2.2550001 34
10.171 -4.1009998 2.4170001 40
10.03 -3.948 1.5089999 4
10.474 -4.1409998 1.753 20
10.337 -4.1059999 1.905 35
10.285 -4.1069999 2.073 35
10.244 -4.1139998 2.244 32
10.16 -4.105 2.405 38
10.023 -3.9560001 1.5 4
10.467 -4.1469998 1.742 20
0 0 0 50
10.275 -4.1100001 2.0610001 34
10.247 -4.1220002 2.234 33
10.16 -4.1110001 2.395 39
9.9510002 -3.9349999 1.48 4
10.458 -4.151 1.7309999 16
10.333 -4.119 1.885 35
10.273 -4.1149998 2.0510001 34
10.24 -4.1230001 2.2219999 33
10.162 -4.1149998 2.385 39
9.941 -3.9360001 1.469 4
10.453 -4.1529999 1.72 8
10.333 -4.1220002 1.875 35
10.276 -4.118 2.0409999 34
10.233 -4.1209998 2.21 34
10.164 -4.1160002 2.3740001 39
9.3430004 -3.701 1.3710001 1
10.433 -4.1469998 1.705 7
10.335 -4.1240001 1.864 36
10.286 -4.1209998 2.0320001 35
10.235 -4.1199999 2.1989999 35
10.173 -4.1170001 2.365 42
9.2729998 -3.674 1.351 1
0 0 0 50
10.343 -4.125 1.855 34
10.283 -4.1170001 2.02 34
10.234 -4.1160002 2.187 36
10.172 -4.1110001 2.352 39
9.2130003 -3.6470001 1.3329999 1
10.315 -4.0949998 1.664 4
10.349 -4.1220002 1.844 34
10.294 -4.1160002 2.01 34
10.238 -4.1110001 2.1760001 36
10.186 -4.1090002 2.3429999 40
9.1680002 -3.625 1.316 1
10.254 -4.0640001 1.642 3
10.357 -4.118 1.8329999 31
10.301 -4.1100001 1.999 35
10.247 -4.105 2.165 35
10.195 -4.1009998 2.332 40
9.1110001 -3.595 1.2970001 1
10.181 -4.026 1.619 2
10.371 -4.1129999 1.824 29
10.316 -4.1040001 1.989 34
10.26 -4.0970001 2.155 36
10.211 -4.0949998 2.323 40
9.0570002 -3.5639999 1.279 1
10.146 -4.0009999 1.601 3
10.392 -4.1079998 1.814 26
10.325 -4.0939999 1.978 34
10.268 -4.085 2.1440001 36
10.225 -4.0840001 2.312 41
9.0080004 -3.533 1.261 1
10.107 -3.971 1.5829999 4
0 0 0 50
10.339 -4.0830002 1.9680001 35
10.294 -4.0780001 2.1359999 35
10.237 -4.0700002 2.302 40
8.934 -3.49 1.24 1
10.103 -3.9530001 1.569 4
10.476 -4.1069999 1.803 24
10.355 -4.0700002 1.957 34
10.305 -4.0619998 2.1240001 35
10.258 -4.0570002 2.2920001 40
8.8839998 -3.454 1.222 1
0 0 0 50
10.51 -4.099 1.795 25
10.372 -4.0539999 1.947 35
10.324 -4.046 2.1140001 35
10.299 -4.0489998 2.2869999 37
8.8039999 -3.405 1.2 1
10.103 -3.9119999 1.544 4
10.523 -4.0799999 1.784 23
10.395 -4.039 1.937 34
10.345 -4.0289998 2.105 35
10.328 -4.0339999 2.279 40
0 0 0 50
10.072 -3.875 1.526 4
10.547 -4.0630002 1.774 20
10.419 -4.0209999 1.928 34
10.369 -4.0100002 2.095 33
10.353 -4.0139999 2.27 33
8.7220001 -3.3310001 1.1670001 2
9.9510002 -3.802 1.495 3
10.572 -4.0440001 1.765 18
10.448 -4.0019999 1.919 33
10.394 -3.9890001 2.086 32
0 0 0 50
8.6540003 -3.2809999 1.147 2
9.8559999 -3.737 1.4680001 3
10.572 -4.0120001 1.75 8
10.472 -3.9790001 1.91 32
10.414 -3.964 2.076 33
10.387 -3.9619999 2.2490001 34
0 0 0 50
9.3950005 -3.5339999 1.388 1
10.531 -3.9630001 1.73 5
10.503 -3.9560001 1.902 32
10.445 -3.9400001 2.0680001 32
10.403 -3.9319999 2.237 34
8.5609999 -3.1919999 1.113 2
9.3570004 -3.4879999 1.37 1
10.476 -3.9070001 1.7079999 4
0 0 0 50
10.478 -3.915 2.0599999 31
10.434 -3.905 2.23 33
8.5059996 -3.142 1.096 2
9.2629995 -3.4200001 1.345 1
10.436 -3.8540001 1.688 4
10.566 -3.904 1.885 28
10.511 -3.8870001 2.053 32
10.46 -3.8740001 2.221 34
8.4540005 -3.092 1.079 2
0 0 0 50
10.433 -3.813 1.674 4
10.601 -3.875 1.878 27
10.545 -3.8570001 2.0450001 31
10.499 -3.845 2.2149999 32
8.4160004 -3.0450001 1.064 2
9.177 -3.3180001 1.3099999 1
10.339 -3.737 1.646 3
10.643 -3.8469999 1.8710001 24
0 0 0 50
10.529 -3.8099999 2.207 32
8.3660002 -2.993 1.0470001 2
9.0930004 -3.25 1.286 1
10.314 -3.684 1.6289999 3
10.746 -3.8369999 1.876 21
10.621 -3.7939999 2.0320001 44
10.569 -3.777 2.201 34
8.3339996 -2.9460001 1.033 2
0 0 0 50
10.344 -3.6489999 1.6210001 3
10.776 -3.799 1.867 25
10.657 -3.757 2.026 31
10.614 -3.744 2.197 32
8.2910004 -2.8929999 1.018 2
8.9989996 -3.1359999 1.252 1
10.28 -3.579 1.599 3
10.83 -3.767 1.864 28
10.695 -3.7190001 2.0190001 29
10.65 -3.7049999 2.191 31
8.2530003 -2.842 1.005 2
0 0 0 50
10.228 -3.5109999 1.579 2
10.866 -3.7260001 1.857 19
10.724 -3.6760001 2.0120001 28
10.685 -3.6619999 2.184 30
8.2340002 -2.7950001 0.99299997 2
8.9169998 -3.0209999 1.22 1
10.129 -3.4260001 1.552 2
10.899 -3.6819999 1.85 17
10.773 -3.6370001 2.0079999 27
10.731 -3.622 2.1800001 29
8.1820002 -2.7360001 0.97799999 2
8.8789997 -2.9630001 1.205 1
0 0 0 50
10.936 -3.638 1.8430001 8
10.815 -3.5940001 2.003 28
10.77 -3.5769999 2.1760001 30
8.165 -2.688 0.96700001 2
8.8479996 -2.9059999 1.192 1
9.8999996 -3.2449999 1.495 2
10.891 -3.5639999 1.824 5
10.863 -3.5510001 2 28
0 0 0 50
8.125 -2.632 0.954 2
8.7950001 -2.8410001 1.175 1
9.8319998 -3.1689999 1.474 2
10.875 -3.4990001 1.809 4
10.915 -3.507 1.997 27
10.862 -3.4860001 2.1689999 28
8.0909996 -2.5769999 0.94300002 2
8.7709999 -2.7850001 1.163 1
9.5979996 -3.04 1.429 1
10.901 -3.4460001 1.802 4
0 0 0 50
10.92 -3.4419999 2.1689999 28
8.0699997 -2.5250001 0.93199998 2
8.7279997 -2.7219999 1.149 2
9.5570002 -2.9719999 1.414 1
10.881 -3.3759999 1.788 5
11.032 -3.4170001 1.995 26
10.967 -3.392 2.1670001 28
8.0290003 -2.4649999 0.92000002 2
8.7019997 -2.6630001 1.137 1
9.5299997 -2.908 1.4 1
10.83 -3.2969999 1.7690001 4
11.113 -3.3759999 1.999 24
11.026 -3.3429999 2.1670001 25
0 0 0 50
8.6829996 -2.6059999 1.127 1
9.4700003 -2.8329999 1.383 1
10.841 -3.234 1.761 3
11.191 -3.3310001 2.0020001 22
11.075 -3.2909999 2.1659999 25
8.0010004 -2.362 0.90399998 2
8.6359997 -2.54 1.114 1
9.4320002 -2.7639999 1.369 1
10.834 -3.1659999 1.75 3
11.263 -3.283 2.0050001 23
11.129 -3.2360001 2.1659999 25
7.9759998 -2.3050001 0.89399999 2
8.6020002 -2.4760001 1.103 1
9.427 -2.704 1.3609999 1
0 0 0 50
11.325 -3.2290001 2.006 21
11.182 -3.1800001 2.1659999 25
6.3959999 -1.808 0.71200001 17
6.4130001 -1.806 0.81699997 12
9.3789997 -2.6300001 1.346 1
10.777 -3.013 1.723 2
11.363 -3.1659999 2.003 22
11.247 -3.1259999 2.1689999 25
6.3239999 -1.748 0.69999999 27
6.3379998 -1.744 0.80299997 22
6.4419999 -1.765 0.92000002 0
10.704 -2.9219999 1.7029999 2
11.402 -3.1029999 2.0009999 26
11.307 -3.0680001 2.171 24
0 0 0 50
6.2880001 -1.689 0.792 42
6.3889999 -1.709 0.90799999 14
10.356 -2.7590001 1.64 1
11.356 -3.016 1.984 6
11.368 -3.01 2.174 24
6.2680001 -1.65 0.685 58
6.2839999 -1.647 0.787 56
6.3410001 -1.654 0.89600003 26
10.607 -2.756 1.6720001 2
11.269 -2.9170001 1.96 3
0 0 0 50
6.2680001 -1.609 0.68099999 63
6.2740002 -1.602 0.78200001 58
6.329 -1.608 0.88999999 34
10.21 -2.5829999 1.602 1
11.35 -2.8599999 1.967 24
11.497 -2.8859999 2.181 25
6.2690001 -1.567 0.67799997 73
6.2729998 -1.559 0.778 59
6.323 -1.563 0.88599998 37
6.5180001 -1.604 1.018 18
11.323 -2.7750001 1.954 37
0 0 0 50
6.277 -1.526 0.67500001 100
6.283 -1.518 0.77600002 62
6.3280001 -1.521 0.88300002 40
10.188 -2.437 1.586 1
11.329 -2.698 1.948 41
11.617 -2.7550001 2.1889999 23
6.2839999 -1.484 0.67199999 145
6.2859998 -1.476 0.773 62
6.3330002 -1.478 0.88 41
0 0 0 50
11.314 -2.6140001 1.939 22
11.691 -2.6889999 2.1949999 23
6.3000002 -1.443 0.671 68
6.3080001 -1.436 0.77200001 60
6.3670001 -1.441 0.88099998 30
10.138 -2.2820001 1.567 1
11.356 -2.5420001 1.9400001 17
11.763 -2.6210001 2.2019999 22
6.322 -1.403 0.67000002 54
0 0 0 50
6.4159999 -1.406 0.88499999 23
10.145 -2.211 1.563 1
11.379 -2.4660001 1.938 7
11.845 -2.5550001 2.211 22
6.3720002 -1.369 0.67299998 42
6.3920002 -1.364 0.77700001 33
6.527 -1.3839999 0.89700001 19
10.113 -2.131 1.553 1
11.594 -2.4289999 1.969 3
0 0 0 50
6.4419999 -1.337 0.67799997 29
6.46 -1.332 0.78200001 24
9.2299995 -1.89 1.265 1
10.102 -2.0550001 1.5470001 1
11.62 -2.3499999 1.9680001 3
12.035 -2.4200001 2.234 21
6.5190001 -1.306 0.68400002 22
6.5710001 -1.306 0.79299998 0
9.21 -1.818 1.2589999 1
10.113 -1.982 1.544 1
0 0 0 50
12.138 -2.3510001 2.2479999 22
7.8439999 -1.513 0.81999999 1
8.4449997 -1.617 1.017 1
9.1990004 -1.748 1.2539999 1
10.108 -1.908 1.54 1
11.59 -2.1719999 1.9529999 3
12.163 -2.2650001 2.2479999 24
7.8410001 -1.455 0.81699997 2
8.4510002 -1.5549999 1.015 1
9.2189999 -1.683 1.253 1
10.075 -1.825 1.531 1
11.689 -2.1029999 1.965 3
0 0 0 50
7.8460002 -1.397 0.81599998 1
8.448 -1.4910001 1.012 1
9.2130003 -1.613 1.25 1
10.099 -1.7539999 1.5319999 1
11.65 -2.0079999 1.955 2
12.512 -2.142 2.303 2
7.8470001 -1.339 0.81400001 1
8.4610004 -1.4299999 1.011 1
9.1920004 -1.539 1.244 1
10.097 -1.677 1.528 1
11.236 -1.851 1.881 1
12.554 -2.053 2.306 1
7.8520002 -1.279 0.81199998 1
8.4530001 -1.364 1.007 1
9.2040005 -1.472 1.243 1
10.072 -1.597 1.521 1
11.217 -1.763 1.875 1
12.555 -1.957 2.303 1
7.8540001 -1.22 0.81099999 1
8.4519997 -1.299 1.005 1
0 0 0 50
10.094 -1.523 1.522 1
11.21 -1.676 1.8710001 1
12.511 -1.854 2.2909999 1
7.8569999 -1.16 0.81 1
8.4659996 -1.2359999 1.005 1
9.1999998 -1.33 1.238 1
10.09 -1.4450001 1.5190001 1
11.188 -1.587 1.864 1
12.542 -1.762 2.293 1
7.8540001 -1.099 0.80800003 1
8.4630003 -1.171 1.003 1
9.2060003 -1.26 1.237 1
10.099 -1.368 1.518 1
11.196 -1.501 1.863 1
12.529 -1.663 2.2869999 1
7.8660002 -1.04 0.80800003 1
8.4750004 -1.107 1.003 1
9.2189999 -1.1900001 1.237 1
10.11 -1.291 1.518 1
11.213 -1.416 1.863 1
12.508 -1.562 2.2809999 1
7.8639998 -0.97799999 0.80599999 1
8.4799995 -1.041 1.002 1
0 0 0 50
10.122 -1.2130001 1.517 1
11.234 -1.331 1.864 1
12.547 -1.47 2.2850001 1
7.875 -0.91799998 0.80599999 1
8.4899998 -0.97600001 1.002 2
9.2550001 -1.05 1.239 1
10.12 -1.1339999 1.515 1
11.221 -1.2410001 1.86 1
12.529 -1.368 2.279 1
7.8850002 -0.85699999 0.80599999 1
8.4849997 -0.90899998 1.001 1
9.2440004 -0.97600001 1.2359999 1
8.4650002 -0.88099998 1.266 9
11.217 -1.152 1.857 1
12.56 -1.272 2.2820001 1
7.9819999 -0.80400002 0.815 2
8.5150003 -0.84500003 1.003 2
8.3970003 -0.81999999 1.1210001 31
8.3179998 -0.80000001 1.243 42
0 0 0 50
12.555 -1.1720001 2.279 1
8.118 -0.75300002 0.82800001 3
8.5209999 -0.77700001 1.002 2
8.3369999 -0.74800003 1.112 56
8.2869997 -0.73100001 1.237 70
8.3120003 -0.72100002 1.374 44
12.6 -1.075 2.2850001 1
8.1280003 -0.68900001 0.829 3
8.4870005 -0.70599997 0.99800003 17
8.3210001 -0.67900002 1.109 63
8.2740002 -0.66299999 1.234 85
8.2969999 -0.65200001 1.37 50
12.622 -0.97500002 2.2869999 1
8.1309996 -0.62300003 0.82800001 3
8.4779997 -0.63700002 0.99599999 23
8.3190002 -0.61199999 1.107 66
8.283 -0.597 1.234 86
0 0 0 50
12.678 -0.87599999 2.2950001 1
8.1280003 -0.55699998 0.82700002 3
8.5220003 -0.57099998 1 5
8.3439999 -0.546 1.11 48
8.3149996 -0.53200001 1.238 52
8.382 -0.52399999 1.382 32
13.906 -0.84899998 2.516 9
8.0959997 -0.48899999 0.82300001 3
8.5570002 -0.50400001 1.003 2
8.4359999 -0.484 1.122 33
8.382 -0.46900001 1.247 36
8.46 -0.461 1.393 0
12.957 -0.68699998 2.3429999 2
7.9780002 -0.41800001 0.81 2
8.5459995 -0.435 1.001 2
9.3079996 -0.46000001 1.2359999 1
10.222 -0.48899999 1.5190001 1
11.358 -0.52700001 1.87 1
13.169 -0.59200001 2.3789999 2
7.9239998 -0.35100001 0.80400002 2
8.566 -0.366 1.003 2
9.3260002 -0.384 1.238 2
10.231 -0.405 1.52 1
11.337 -0.433 1.865 1
13.049 -0.479 2.3559999 2
6.4720001 -0.233 0.65600002 0
8.5620003 -0.29499999 1.001 2
9.3249998 -0.308 1.237 1
10.241 -0.32300001 1.52 1
0 0 0 50
13.043 -0.373 2.3540001 1
6.414 -0.17900001 0.64999998 0
8.5799999 -0.226 1.003 2
9.3369999 -0.23199999 1.238 1
10.222 -0.23899999 1.516 1
11.388 -0.249 1.8710001 1
13.094 -0.26699999 2.362 1
7.9660001 -0.156 0.80599999 2
8.5719995 -0.155 1.001 2
9.3479996 -0.155 1.238 1
10.25 -0.155 1.52 1
11.377 -0.155 1.868 1
12.988 -0.15700001 2.3410001 1
7.974 -0.090999998 0.80599999 2
8.5830002 -0.085000001 1.001 2
9.3649998 -0.078000002 1.239 1
10.277 -0.071000002 1.522 1
11.414 -0.061000001 1.873 1
12.761 -0.050000001 2.2980001 1
7.9790001 -0.025 0.80599999 2
8.5979996 -0.014 1.002 2
9.3669996 -0.001 1.239 1
10.269 0.014 1.52 1
11.422 0.032000002 1.873 1
12.737 0.055 2.293 1
7.9879999 0.041000001 0.80599999 2
8.6090002 0.057 1.003 2
9.3660002 0.075999998 1.238 1
10.291 0.098999999 1.522 1
11.42 0.127 1.8710001 1
12.811 0.163 2.3050001 1
7.9889998 0.108 0.80500001 2
8.6029997 0.12899999 1.001 2
9.3660002 0.154 1.237 1
10.323 0.185 1.526 1
0 0 0 50
12.792 0.26800001 2.3 1
8.0139999 0.175 0.80699998 2
8.6339998 0.20100001 1.0039999 2
9.3950005 0.233 1.239 1
10.323 0.271 1.525 1
11.467 0.31799999 1.876 1
12.865 0.377 2.312 1
8.0240002 0.242 0.80699998 2
8.632 0.273 1.002 2
9.4110003 0.31099999 1.24 2
10.334 0.35699999 1.525 1
11.468 0.41299999 1.875 1
12.87 0.48300001 2.3110001 1
8.026 0.30899999 0.80599999 2
8.6490002 0.34599999 1.003 2
9.4049997 0.38999999 1.238 1
10.327 0.44299999 1.523 1
11.457 0.509 1.872 1
12.913 0.59299999 2.3169999 1
7.802 0.366 0.78299999 3
8.6529999 0.41800001 1.002 2
9.4110003 0.46900001 1.238 1
10.349 0.53100002 1.525 1
11.503 0.60799998 1.878 1
12.947 0.70300001 2.322 1
7.777 0.43099999 0.77899998 3
8.6370001 0.491 0.99900001 1
9.4130001 0.54799998 1.237 1
10.348 0.61799997 1.523 1
11.485 0.704 1.874 1
0 0 0 50
7.8080001 0.49900001 0.78100002 6
8.6599998 0.56599998 1.001 1
9.4390001 0.63 1.239 1
10.355 0.70700002 1.523 1
11.539 0.80599999 1.881 1
12.92 0.92199999 2.3139999 1
7.8060002 0.56599998 0.77899998 11
8.6809998 0.64200002 1.002 2
9.4420004 0.71100003 1.238 1
10.368 0.79699999 1.523 1
11.504 0.90200001 1.874 1
12.938 1.034 2.3150001 1
7.803 0.63300002 0.77700001 18
8.6899996 0.71700001 1.001 2
9.4530001 0.79299998 1.237 1
10.379 0.88700002 1.523 1
11.543 1.0039999 1.878 1
13.013 1.152 2.3269999 1
7.7750001 0.69800001 0.773 15
8.6890001 0.792 1 1
9.4540005 0.875 1.2359999 1
10.397 0.97799999 1.524 1
11.569 1.105 1.881 1
13.01 1.2640001 2.3239999 1
7.7030001 0.75700003 0.764 11
8.7040005 0.86799997 0.99900001 1
9.4729996 0.958 1.237 1
10.422 1.0700001 1.526 1
11.572 1.205 1.8789999 1
12.942 1.368 2.3099999 3
7.7859998 0.833 0.77100003 20
8.7040005 0.94400001 0.99800003 1
9.507 1.045 1.239 1
10.427 1.161 1.525 1
0 0 0 50
9.0950003 1.04 1.622 11
7.8940001 0.91399997 0.77999997 17
8.7639999 1.027 1.003 1
9.4919996 1.125 1.235 1
9.0909996 1.091 1.3279999 18
8.9619999 1.089 1.452 30
8.934 1.099 1.592 31
8.302 1.033 0.81800002 3
8.8800001 1.117 1.0140001 3
9.2670002 1.179 1.204 3
8.9499998 1.152 1.3049999 34
8.8610001 1.153 1.434 38
8.8400002 1.164 1.574 38
8.4359999 1.124 0.829 3
8.882 1.196 1.012 4
9.0579996 1.232 1.175 18
8.8809996 1.22 1.293 43
8.8050003 1.223 1.423 51
8.7810001 1.233 1.561 49
8.4289999 1.198 0.82599998 3
8.8990002 1.276 1.011 4
8.9919996 1.302 1.164 35
8.8500004 1.294 1.2869999 48
8.7790003 1.2970001 1.4170001 69
8.7580004 1.308 1.556 54
8.434 1.274 0.824 3
8.9069996 1.3559999 1.01 4
8.9799995 1.38 1.16 36
0 0 0 50
8.7659998 1.372 1.413 76
8.7489996 1.383 1.552 55
8.434 1.348 0.82099998 3
8.8940001 1.432 1.006 4
8.974 1.457 1.1569999 35
8.8330002 1.446 1.28 45
8.7609997 1.447 1.411 57
8.7410002 1.4579999 1.549 52
8.4390001 1.423 0.81900001 3
8.8940001 1.511 1.003 3
9 1.54 1.158 30
8.8339996 1.525 1.278 41
8.7670002 1.526 1.41 48
8.7609997 1.538 1.551 45
8.3590002 1.484 0.80900002 3
8.8430004 1.581 0.995 2
9.1339998 1.645 1.173 3
0 0 0 50
8.8000002 1.61 1.413 36
8.8000002 1.623 1.556 32
8.1639996 1.522 0.787 2
8.7089996 1.6339999 0.977 1
9.4849997 1.7920001 1.215 1
8.9919996 1.712 1.296 12
8.8990002 1.707 1.427 22
8.9160004 1.724 1.575 21
8.0600004 1.574 0.77399999 1
8.7209997 1.714 0.97600001 1
9.4860001 1.877 1.212 1
10.463 2.085 1.505 1
11.408 2.29 1.826 2
12.383 2.506 2.1849999 7
8.059 1.647 0.77100003 1
8.7049999 1.79 0.97100002 1
9.5170002 1.969 1.214 1
10.569 2.201 1.518 3
10.956 2.2980001 1.751 5
11.054 2.336 1.948 24
0 0 0 50
6.5139999 1.398 0.72399998 6
9.5080004 2.053 1.209 1
10.511 2.2839999 1.506 3
10.765 2.355 1.7180001 44
10.71 2.359 1.885 62
6.4829998 1.442 0.616 28
6.4580002 1.444 0.71600002 70
0 0 0 0
10.635 2.4070001 1.521 5
10.664 2.4289999 1.699 63
10.616 2.4349999 1.865 85
6.4289999 1.489 0.60799998 55
6.3639998 1.4809999 0.70300001 68
6.3010001 1.475 0.79699999 45
10.607 2.4979999 1.5140001 6
10.6 2.5109999 1.686 85
10.548 2.5150001 1.851 97
6.3779998 1.535 0.60000002 64
6.3299999 1.531 0.69700003 75
6.2649999 1.524 0.79100001 72
10.588 2.5899999 1.508 6
0 0 0 50
10.514 2.6029999 1.8430001 99
6.3410001 1.585 0.59399998 71
6.2930002 1.58 0.69099998 74
6.2350001 1.573 0.78500003 76
6.25 1.586 0.88800001 3
10.561 2.6949999 1.674 97
10.507 2.697 1.839 100
6.3109999 1.636 0.58899999 73
6.2610002 1.63 0.685 79
6.204 1.623 0.77899998 77
6.2069998 1.632 0.88 8
10.414 2.753 1.648 99
10.37 2.7579999 1.813 95
6.2709999 1.684 0.583 75
6.2270002 1.679 0.67799997 81
6.1820002 1.674 0.77399999 80
6.2020001 1.687 0.87699997 15
10.623 2.905 1.678 7
10.577 2.9100001 1.846 10
4.4629998 1.239 0.41299999 8
6.204 1.73 0.67299998 82
6.1539998 1.723 0.76800001 80
0 0 0 50
10.718 3.0320001 1.6900001 4
10.671 3.0350001 1.86 5
4.4039998 1.2640001 0.405 20
6.164 1.776 0.667 150
6.1290002 1.774 0.76300001 101
4.4530001 1.294 0.62699997 7
4.4180002 1.29 0.69499999 6
10.9 3.201 1.898 6
4.4809999 1.3279999 0.41 18
4.4359999 1.319 0.47799999 11
6.1090002 1.825 0.75800002 83
0 0 0 0
4.3660002 1.316 0.68599999 11
4.302 1.304 0.74800003 9
4.362 1.335 0.39700001 22
4.3400002 1.332 0.46599999 28
4.4060001 1.357 0.54500002 9
4.3390002 1.342 0.60799998 9
4.349 1.352 0.68199998 17
4.2719998 1.335 0.741 11
4.3769999 1.381 0.39700001 24
4.335 1.372 0.463 25
0 0 0 50
4.3429999 1.385 0.60699999 29
4.3249998 1.385 0.67699999 34
4.2950001 1.382 0.745 23
4.3369999 1.409 0.391 19
4.3400002 1.414 0.46200001 19
4.434 1.45 0.54500002 12
4.3249998 1.419 0.60299999 14
4.3299999 1.427 0.67699999 11
4.3249998 1.433 0.74900001 8
4.3660002 1.46 0.39199999 10
4.3540001 1.46 0.46200001 12
4.408 1.483 0.54100001 7
4.3390002 1.465 0.60399997 10
0 0 0 50
4.29 1.461 0.74199998 13
4.4320002 1.524 0.396 6
4.3839998 1.511 0.463 4
8.4209995 2.9130001 1.03 44
4.3390002 1.506 0.60299999 13
4.3299999 1.5089999 0.67500001 13
4.2690001 1.495 0.73699999 21
8.0629997 2.849 0.71700001 2
8.2119999 2.9100001 0.86500001 7
8.2329998 2.9260001 1.0039999 43
4.3130002 1.538 0.59799999 0
8.1899996 2.9330001 1.274 37
4.2389998 1.525 0.73100001 6
8.0319996 2.9159999 0.70999998 7
8.0649996 2.9349999 0.847 22
0 0 0 50
8.0489998 2.948 1.114 40
8.0229998 2.9489999 1.2460001 38
7.9949999 2.9519999 1.378 39
7.8870001 2.9389999 0.69400001 7
7.9120002 2.9549999 0.82800001 42
7.8990002 2.9590001 0.958 43
7.8889999 2.964 1.09 39
7.8579998 2.964 1.219 38
7.8330002 2.967 1.349 39
7.7290001 2.954 0.67699999 8
7.763 2.974 0.80900002 46
0 0 0 50
7.723 2.9760001 1.0650001 40
7.6950002 2.9760001 1.192 37
7.6799998 2.983 1.322 38
7.566 2.9649999 0.65899998 8
7.5970001 2.984 0.78899997 44
7.5890002 2.9879999 0.91600001 41
7.5770001 2.993 1.043 38
7.5539999 2.994 1.169 37
7.5279999 2.9960001 1.295 38
7.4559999 2.994 0.64700001 17
7.4530001 2.9990001 0.77100003 45
7.428 2.997 0.89399999 40
7.421 3.003 1.02 39
7.4039998 3.006 1.1440001 38
7.388 3.0120001 1.27 38
7.3179998 3.0109999 0.63200003 41
7.3000002 3.01 0.75300002 46
7.2839999 3.01 0.875 41
0 0 0 50
7.256 3.017 1.12 38
7.2309999 3.0179999 1.242 37
7.1669998 3.0190001 0.616 48
7.1560001 3.0190001 0.736 47
7.1440001 3.0209999 0.85600001 43
7.1329999 3.026 0.977 40
7.1100001 3.026 1.097 38
7.0929999 3.0309999 1.2180001 37
7.0370002 3.033 0.602 50
7.0320001 3.036 0.72100002 46
7.0100002 3.0339999 0.838 42
6.9980001 3.0369999 0.95700002 40
0 0 0 50
6.9619999 3.0420001 1.1950001 37
6.9109998 3.0469999 0.58899999 50
6.9060001 3.05 0.70599997 44
6.8909998 3.05 0.82200003 43
6.8790002 3.052 0.94 43
6.8559999 3.052 1.056 39
6.8369999 3.0539999 1.173 37
6.7839999 3.0569999 0.57599998 49
6.7709999 3.0569999 0.69 45
6.763 3.059 0.80599999 45
6.756 3.0639999 0.92199999 43
6.7329998 3.063 1.036 39
0 0 0 50
6.658 3.0669999 0.56300002 56
6.6490002 3.0669999 0.676 52
6.645 3.0710001 0.79100001 50
6.6370001 3.075 0.90499997 47
6.6209998 3.0769999 1.0190001 45
6.5949998 3.076 1.131 43
6.5320001 3.073 0.55000001 56
6.5310001 3.0769999 0.66299999 53
6.5209999 3.0780001 0.77399999 50
6.513 3.082 0.88800001 47
6.5009999 3.086 1 45
6.4819999 3.0880001 1.112 44
6.4180002 3.0829999 0.53899997 57
6.4130001 3.085 0.64899999 54
6.4000001 3.085 0.759 51
6.3990002 3.092 0.87199998 47
6.382 3.092 0.98199999 45
0 0 0 50
6.3099999 3.0940001 0.528 57
6.3060002 3.096 0.63700002 56
6.2940001 3.096 0.74599999 54
6.289 3.1010001 0.85600001 49
6.2670002 3.099 0.96399999 47
6.2529998 3.102 1.074 45
6.2059999 3.105 0.51800001 58
6.2069998 3.109 0.62599999 58
6.1960001 3.109 0.73400003 56
6.184 3.109 0.84200001 51
6.1669998 3.1099999 0.949 47
6.1500001 3.112 1.058 49
6.1090002 3.1170001 0.509 60
0 0 0 50
6.0879998 3.1140001 0.72100002 56
6.0819998 3.118 0.82800001 51
6.0700002 3.1199999 0.935 47
6.053 3.122 1.0420001 46
6.0139999 3.1259999 0.5 60
6.0029998 3.1240001 0.60399997 60
5.9889998 3.122 0.70899999 55
5.9829998 3.1259999 0.815 51
5.9720001 3.1289999 0.921 47
5.96 3.132 1.027 46
5.914 3.1329999 0.491 62
5.9109998 3.1340001 0.59500003 61
5.9039998 3.135 0.699 56
5.8889999 3.1340001 0.80299997 51
5.8740001 3.135 0.90700001 48
0 0 0 50
5.816 3.138 0.48199999 62
5.816 3.141 0.58499998 61
5.8039999 3.1389999 0.68699998 58
5.803 3.145 0.792 52
5.7870002 3.1440001 0.89399999 49
5.7719998 3.1459999 0.99800003 46
5.7309999 3.148 0.47499999 60
5.7290001 3.1500001 0.57599998 61
5.7199998 3.1500001 0.67799997 55
5.71 3.151 0.77999997 54
5.698 3.152 0.88200003 51
5.6830001 3.154 0.98400003 48
5.645 3.1559999 0.46700001 61
5.6360002 3.154 0.56699997 60
5.631 3.155 0.66799998 57
5.619 3.155 0.76899999 52
5.605 3.155 0.86900002 49
5.592 3.158 0.97000003 47
5.5609999 3.1630001 0.46000001 61
5.5570002 3.164 0.56 60
5.5450001 3.161 0.65899998 58
0 0 0 50
5.527 3.165 0.85900003 50
5.5089998 3.165 0.958 46
5.473 3.165 0.45300001 61
5.4790001 3.1719999 0.55299997 59
5.467 3.1689999 0.65100002 58
5.4580002 3.1700001 0.74900001 52
5.454 3.175 0.85000002 49
5.4369998 3.175 0.94800001 48
5.4039998 3.177 0.44800001 64
5.3990002 3.177 0.54500002 61
5.3860002 3.1730001 0.64200002 57
5.3850002 3.1789999 0.741 52
5.3759999 3.181 0.83899999 49
5.355 3.178 0.93599999 46
0 0 0 50
5.323 3.1819999 0.53899997 61
5.3150001 3.181 0.63499999 59
5.3039999 3.1800001 0.73199999 53
5.3000002 3.1860001 0.82999998 52
5.2870002 3.188 0.92699999 51
5.2589998 3.191 0.43799999 62
5.2540002 3.1900001 0.53299999 61
5.2470002 3.1900001 0.62900001 60
5.2379999 3.191 0.72500002 54
5.2270002 3.1919999 0.82099998 53
5.2160001 3.1949999 0.91799998 51
5.1849999 3.1949999 0.43200001 61
5.184 3.197 0.52700001 61
5.171 3.1930001 0.62199998 59
0 0 0 50
5.1599998 3.1989999 0.81300002 52
5.1459999 3.2 0.90799999 50
5.118 3.201 0.428 61
5.1139998 3.2 0.52200001 61
5.1110001 3.2030001 0.616 61
5.0999999 3.201 0.70999998 54
5.0900002 3.2030001 0.80500001 53
5.0799999 3.207 0.89999998 50
5.0599999 3.211 0.42500001 69
0 0 0 50
5.0489998 3.21 0.611 69
5.0359998 3.2079999 0.704 62
5.0240002 3.2079999 0.79799998 59
5.0089998 3.2079999 0.89099997 59
4.9980001 3.217 0.421 70
4.9949999 3.217 0.514 65
4.987 3.2149999 0.60600001 68
4.9720001 3.2119999 0.69800001 62
4.9650002 3.2149999 0.792 60
4.9549999 3.2190001 0.88599998 60
0 0 0 50
4.9299998 3.2190001 0.509 63
4.9250002 3.2190001 0.60100001 71
4.9219999 3.223 0.69400001 63
4.9089999 3.2219999 0.78600001 61
4.902 3.2279999 0.88 62
4.8800001 3.227 0.41499999 66
4.8779998 3.2279999 0.50700003 62
0 0 0 50
4.8590002 3.224 0.68900001 63
4.8530002 3.2290001 0.78100002 60
4.8400002 3.23 0.87300003 61
4.816 3.2260001 0.412 67
4.8200002 3.23 0.50300002 62
4.816 3.2309999 0.59399998 67
4.8099999 3.233 0.685 62
4.7969999 3.2320001 0.77600002 60
4.7909999 3.2379999 0.86799997 62
4.7610002 3.2290001 0.41 64
4.7639999 3.233 0.5 62
4.7579999 3.2320001 0.58999997 69
0 0 0 50
4.7420001 3.2349999 0.77100003 59
4.7319999 3.2390001 0.86199999 62
4.7150002 3.2360001 0.40799999 63
4.7129998 3.2360001 0.49700001 60
4.7020001 3.233 0.58600003 65
0 0 0 50
4.691 3.2390001 0.76599997 60
4.6799998 3.2420001 0.85699999 61
4.6690001 3.2409999 0.40700001 64
4.6669998 3.2420001 0.49599999 60
4.6550002 3.237 0.58399999 65
4.651 3.24 0.67299998 60
4.645 3.244 0.76300001 58
4.6279998 3.2420001 0.85100001 60
4.6259999 3.247 0.40599999 66
4.6230001 3.2460001 0.49399999 59
4.6139998 3.244 0.58200002 65
4.6030002 3.243 0.67000002 59
0 0 0 50
4.5879998 3.25 0.84899998 60
4.5819998 3.25 0.405 66
4.5799999 3.2509999 0.493 58
4.5689998 3.247 0.57999998 66
4.5640001 3.2490001 0.66900003 60
4.559 3.2539999 0.75800002 57
4.546 3.256 0.84600002 61
4.5419998 3.2550001 0.405 66
4.539 3.2550001 0.49200001 58
0 0 0 50
4.5209999 3.2509999 0.66600001 58
4.513 3.2539999 0.755 57
4.5029998 3.2579999 0.84299999 59
4.507 3.2609999 0.405 66
4.5079999 3.263 0.49200001 60
4.494 3.257 0.57800001 66
4.4879999 3.2590001 0.66600001 59
4.474 3.257 0.75199997 57
4.4619999 3.2590001 0.83999997 59
4.4679999 3.2620001 0.405 68
0 0 0 50
4.467 3.267 0.579 67
4.454 3.2639999 0.66500002 59
4.441 3.263 0.75199997 57
4.4299998 3.266 0.83899999 60
4.4359999 3.267 0.40599999 68
4.4369998 3.2690001 0.49200001 60
4.4320002 3.27 0.579 67
4.4169998 3.2650001 0.66399997 58
4.408 3.267 0.75099999 58
4.3979998 3.2709999 0.838 59
0 0 0 50
4.3990002 3.267 0.49200001 60
4.3930001 3.267 0.57700002 68
4.3940001 3.2750001 0.66500002 61
4.3790002 3.2720001 0.75099999 60
4.369 3.276 0.83700001 64
4.3769999 3.2739999 0.40799999 68
4.3759999 3.2750001 0.493 60
4.3639998 3.2709999 0.57800001 67
4.3590002 3.2739999 0.66399997 59
4.3559999 3.28 0.75099999 57
4.3309999 3.273 0.83499998 63
4.3410001 3.27 0.40799999 66
4.3449998 3.2750001 0.49399999 60
4.3319998 3.27 0.57800001 69
4.336 3.28 0.66500002 58
0 0 0 50
4.3060002 3.277 0.83499998 62
4.3200002 3.276 0.41 62
4.3179998 3.276 0.495 59
4.309 3.2739999 0.579 69
4.3039999 3.277 0.66500002 60
4.2940001 3.2780001 0.75 58
4.283 3.2820001 0.83600003 59
4.2969999 3.2780001 0.412 62
4.2950001 3.2780001 0.49599999 61
4.2849998 3.2750001 0.57999998 76
4.2810001 3.279 0.66600001 68
4.2709999 3.2809999 0.75099999 68
4.2540002 3.28 0.83499998 69
0 0 0 50
4.2750001 3.28 0.498 62
4.263 3.276 0.58200002 74
4.2589998 3.28 0.667 66
4.2529998 3.2850001 0.75199997 66
4.237 3.2850001 0.83700001 69
4.2589998 3.2820001 0.41600001 70
4.2579999 3.2839999 0.5 59
4.25 3.2820001 0.58399999 73
4.243 3.2839999 0.66900003 68
4.23 3.2839999 0.75300002 66
0 0 0 50
4.2410002 3.2820001 0.41800001 69
4.2399998 3.2839999 0.50199997 59
4.2309999 3.2820001 0.58499998 71
4.2259998 3.2850001 0.67000002 65
4.211 3.283 0.75400001 66
4.2010002 3.2880001 0.83899999 69
4.2270002 3.283 0.41999999 68
4.2249999 3.2839999 0.50400001 59
4.2179999 3.2839999 0.588 70
4.2090001 3.2839999 0.67199999 66
0 0 0 50
4.1890001 3.2909999 0.84100002 68
4.2160001 3.2850001 0.42300001 67
4.2119999 3.2839999 0.50599998 59
4.204 3.283 0.58999997 69
4.1950002 3.2839999 0.67400002 65
4.1869998 3.2880001 0.75800002 64
4.1729999 3.29 0.84299999 67
4.2059999 3.2850001 0.426 69
4.2020001 3.2850001 0.509 58
4.1950002 3.2850001 0.59200001 68
4.1869998 3.286 0.67699999 65
4.1750002 3.2869999 0.76099998 64
0 0 0 50
4.1960001 3.283 0.42899999 68
4.197 3.2869999 0.51200002 57
4.1859999 3.2839999 0.59500003 67
4.178 3.286 0.67900002 63
4.1669998 3.2869999 0.76300001 61
4.1529999 3.29 0.847 65
4.1939998 3.286 0.43200001 68
4.1919999 3.2880001 0.51499999 58
4.1789999 3.283 0.59799999 67
0 0 0 50
4.164 3.29 0.76599997 61
4.1459999 3.2880001 0.85000002 66
4.1960001 3.29 0.435 69
4.1880002 3.2869999 0.51800001 58
4.1789999 3.286 0.60100001 67
4.1729999 3.289 0.685 63
4.1620002 3.2909999 0.76899999 62
4.1409998 3.2880001 0.852 63
0 0 0 50
4.1890001 3.2880001 0.52100003 58
4.1760001 3.2839999 0.60399997 67
4.1719999 3.289 0.68900001 63
4.1609998 3.2909999 0.773 61
4.1399999 3.2880001 0.85500002 64
4.1919999 3.286 0.44100001 68
4.1880002 3.286 0.52499998 58
4.1810002 3.286 0.60799998 67
4.1719999 3.2880001 0.69199997 61
0 0 0 50
4.1490002 3.2939999 0.86000001 67
4.197 3.286 0.44499999 70
4.1939998 3.2869999 0.528 59
4.1820002 3.2839999 0.611 67
4.1739998 3.2869999 0.69499999 62
4.165 3.29 0.77899998 61
4.152 3.293 0.86400002 67
4.204 3.286 0.44800001 68
4.1950002 3.283 0.53100002 59
4.191 3.286 0.61500001 69
4.1820002 3.2869999 0.699 63
0 0 0 50
4.158 3.2939999 0.86799997 66
4.211 3.2839999 0.45199999 69
4.2080002 3.2850001 0.53500003 58
4.198 3.2839999 0.61900002 69
4.1919999 3.2880001 0.70300001 63
4.178 3.2880001 0.787 63
4.1609998 3.289 0.87099999 66
4.2220001 3.2839999 0.45500001 66
4.2199998 3.286 0.53899997 59
0 0 0 50
4.197 3.283 0.70599997 65
4.1869998 3.286 0.79100001 66
4.1680002 3.2850001 0.875 67
4.2340002 3.2809999 0.45899999 67
4.2309999 3.283 0.54299998 61
4.224 3.2839999 0.62699997 70
4.2140002 3.2850001 0.71100003 66
4.2010002 3.286 0.796 64
4.1849999 3.2880001 0.88 68
0 0 0 50
4.2459998 3.2820001 0.54699999 58
4.244 3.286 0.63200003 73
4.2290001 3.283 0.71499997 64
4.2129998 3.283 0.80000001 66
4.2020001 3.289 0.88499999 70
4.2680001 3.279 0.46599999 69
4.2680001 3.2839999 0.551 62
4.2540002 3.279 0.63499999 64
4.2459998 3.2820001 0.72000003 59
0 0 0 50
4.2189999 3.2869999 0.88999999 68
4.2909999 3.28 0.47 59
4.2839999 3.279 0.55500001 54
4.2740002 3.2780001 0.639 68
4.2670002 3.2820001 0.72399998 61
4.2550001 3.2839999 0.81 62
4.2360001 3.283 0.89399999 65
4.3130002 3.279 0.47400001 60
4.3060002 3.277 0.55800003 57
4.302 3.2809999 0.64399999 67
4.29 3.2809999 0.72899997 61
0 0 0 50
4.2620001 3.2850001 0.89999998 66
4.335 3.2750001 0.47799999 65
4.3299999 3.2750001 0.56199998 57
4.3179998 3.273 0.64700001 67
4.3070002 3.2739999 0.73199999 61
4.2950001 3.276 0.81900001 61
4.2880001 3.2850001 0.90600002 63
4.362 3.273 0.48100001 64
4.3600001 3.276 0.56699997 58
4.3499999 3.2750001 0.65200001 63
4.3449998 3.28 0.73900002 60
0 0 0 50
4.3070002 3.276 0.91000003 64
4.388 3.2690001 0.484 61
4.3839998 3.2690001 0.56999999 58
4.3759999 3.27 0.65600002 67
4.369 3.2739999 0.74299997 62
4.3559999 3.276 0.82999998 59
4.3449998 3.2809999 0.917 61
0 0 0 50
4.421 3.2720001 0.57499999 55
4.4039998 3.266 0.66000003 66
4.3979998 3.27 0.74699998 60
4.3850002 3.273 0.83399999 60
4.368 3.273 0.921 61
4.4559999 3.266 0.49200001 63
4.4569998 3.2720001 0.579 56
4.4419999 3.267 0.66600001 65
4.4299998 3.2679999 0.75199997 58
4.4180002 3.27 0.83999997 60
4.4000001 3.27 0.92699999 63
4.4949999 3.266 0.49599999 64
4.4879999 3.266 0.583 57
4.473 3.2609999 0.66900003 62
4.4640002 3.263 0.75700003 60
4.447 3.2620001 0.84399998 60
0 0 0 50
4.5240002 3.257 0.49900001 60
4.5159998 3.256 0.58600003 56
4.5029998 3.253 0.67199999 63
4.4959998 3.256 0.76099998 59
4.4819999 3.257 0.84899998 58
4.4679999 3.2609999 0.93699998 62
4.5560002 3.2479999 0.50099999 60
4.5560002 3.2520001 0.58899999 55
4.5469999 3.2520001 0.67799997 65
4.5359998 3.253 0.76599997 61
4.5240002 3.256 0.85399997 59
4.5139999 3.2620001 0.94400001 64
4.6069999 3.2509999 0.50599998 59
0 0 0 50
4.5890002 3.2490001 0.68199998 63
4.579 3.2509999 0.77100003 61
4.5679998 3.253 0.86000001 59
4.553 3.256 0.94999999 63
4.6479998 3.2449999 0.509 59
4.6399999 3.244 0.597 56
4.6329999 3.2449999 0.68599999 62
4.6220002 3.2460001 0.77600002 61
4.6100001 3.2479999 0.86500001 59
4.5960002 3.2509999 0.95499998 61
4.697 3.244 0.51200002 57
0 0 0 50
4.6799998 3.2420001 0.69099998 63
4.6719999 3.244 0.78100002 64
4.6620002 3.2479999 0.87199998 63
4.651 3.253 0.963 64
4.744 3.2379999 0.51499999 60
4.7350001 3.2360001 0.60500002 57
4.73 3.2379999 0.69499999 65
4.7199998 3.24 0.78600001 62
4.7119999 3.2449999 0.87800002 59
4.6950002 3.2460001 0.96899998 65
4.796 3.2349999 0.51899999 57
4.7909999 3.2349999 0.60900003 57
0 0 0 50
4.7719998 3.237 0.792 61
4.7589998 3.2379999 0.88300002 61
4.7449999 3.2409999 0.97500002 67
4.8509998 3.2309999 0.52200001 59
4.8439999 3.23 0.61299998 57
4.835 3.23 0.704 66
4.8239999 3.2309999 0.796 62
4.8119998 3.233 0.88800001 63
4.7989998 3.2360001 0.98100001 65
4.9050002 3.2260001 0.52499998 60
4.9050002 3.23 0.61699998 58
4.8909998 3.2260001 0.70899999 65
4.8839998 3.2290001 0.80199999 63
4.8720002 3.2309999 0.89499998 62
4.8579998 3.234 0.98799998 64
4.9660001 3.223 0.528 61
4.9580002 3.2219999 0.62 58
4.9460001 3.2190001 0.713 65
0 0 0 50
4.9250002 3.223 0.89999998 57
4.9159999 3.2290001 0.995 58
5.026 3.2190001 0.53100002 51
5.0139999 3.214 0.62400001 53
5.0079999 3.2149999 0.71799999 55
4.994 3.2130001 0.81099999 56
4.9879999 3.2190001 0.90600002 57
4.9650002 3.2160001 1 57
5.0910001 3.2149999 0.53399998 52
5.0760002 3.2079999 0.62699997 53
5.0619998 3.2049999 0.72100002 54
5.053 3.207 0.81599998 55
5.0430002 3.2090001 0.91100001 55
5.0339999 3.214 1.007 58
5.145 3.2030001 0.53600001 52
5.1409998 3.2030001 0.63099998 53
5.1300001 3.201 0.72600001 54
5.125 3.2049999 0.82200003 56
5.1129999 3.207 0.91799998 57
5.0939999 3.2060001 1.013 58
5.2140002 3.198 0.53899997 52
5.2069998 3.197 0.63499999 53
5.1939998 3.194 0.73000002 53
5.1919999 3.1989999 0.82700002 55
5.1820002 3.2019999 0.92500001 55
5.1630001 3.2 1.02 59
5.2849998 3.1930001 0.542 53
5.276 3.191 0.63800001 54
5.2649999 3.1889999 0.73500001 53
0 0 0 50
5.2459998 3.1919999 0.93000001 56
5.2350001 3.1960001 1.028 61
5.3530002 3.1860001 0.54400003 52
5.3460002 3.184 0.64099997 53
5.3379998 3.184 0.73900002 54
5.323 3.181 0.83600003 53
5.3150001 3.1830001 0.935 56
5.303 3.1860001 1.034 55
5.4250002 3.178 0.54699999 52
5.4229999 3.178 0.64499998 52
5.4089999 3.174 0.74299997 51
5.4060001 3.178 0.84299999 54
5.401 3.184 0.94400001 55
5.3899999 3.187 1.044 57
5.4990001 3.1700001 0.54900002 52
5.5019999 3.1730001 0.64899999 54
5.4949999 3.1730001 0.74900001 53
5.4840002 3.1719999 0.84899998 54
5.473 3.1730001 0.949 53
5.461 3.1760001 1.05 57
5.5710001 3.1589999 0.551 54
5.5799999 3.165 0.653 52
5.5669999 3.1619999 0.75300002 52
5.5650001 3.1659999 0.85399997 52
5.559 3.1700001 0.95700002 54
5.5359998 3.1659999 1.057 55
5.664 3.158 0.55400002 51
5.6589999 3.1570001 0.65600002 52
5.6560001 3.158 0.75800002 52
5.6490002 3.1589999 0.861 53
5.6370001 3.1600001 0.963 53
5.631 3.165 1.067 54
5.7470002 3.1500001 0.55699998 50
0 0 0 50
5.737 3.1489999 0.76200002 53
5.7319999 3.151 0.866 54
5.7220001 3.152 0.97000003 53
5.7090001 3.1530001 1.074 55
5.8369999 3.1440001 0.56 52
5.8330002 3.1429999 0.66299999 54
5.823 3.1400001 0.76700002 52
5.8210001 3.1429999 0.87199998 51
5.8140001 3.1459999 0.97799999 53
5.7979999 3.145 1.082 54
5.928 3.1370001 0.56199998 52
5.927 3.1370001 0.667 52
5.915 3.132 0.77200001 52
5.9099998 3.1340001 0.87800002 51
5.9050002 3.1370001 0.98500001 52
5.8959999 3.141 1.092 59
6.0219998 3.1289999 0.565 50
6.0180001 3.1270001 0.671 53
6.0100002 3.125 0.77700001 52
6.0050001 3.1270001 0.884 53
5.9970002 3.128 0.99199998 53
5.993 3.1340001 1.101 58
6.1139998 3.118 0.56699997 50
0 0 0 50
6.1100001 3.119 0.78299999 51
6.1090002 3.1210001 0.89200002 53
6.1009998 3.1229999 1.001 53
6.0869999 3.122 1.109 53
6.2140002 3.1099999 0.56999999 46
6.211 3.109 0.67900002 51
6.198 3.1040001 0.78600001 51
6.1999998 3.108 0.89700001 51
6.1890001 3.1070001 1.007 52
6.1830001 3.1110001 1.118 54
6.3070002 3.096 0.57200003 45
6.3070002 3.096 0.68199998 47
6.3049998 3.0969999 0.792 50
6.3039999 3.099 0.90399998 50
6.296 3.099 1.015 51
6.289 3.102 1.128 53
6.4120002 3.0869999 0.57499999 43
6.4159999 3.0880001 0.68599999 46
6.414 3.0880001 0.79799998 48
6.4169998 3.092 0.912 51
6.4099998 3.0929999 1.025 44
6.4029999 3.095 1.1390001 44
6.5250001 3.079 0.57800001 38
6.5320001 3.0810001 0.69099998 40
6.5339999 3.0829999 0.80500001 42
6.5310001 3.0829999 0.92000002 44
6.527 3.086 1.035 43
6.5289998 3.092 1.152 47
6.6490002 3.0739999 0.58200002 39
6.651 3.0739999 0.69599998 40
6.6490002 3.073 0.81199998 42
6.6459999 3.073 0.92699999 44
6.6420002 3.075 1.044 46
6.6350002 3.0769999 1.161 47
6.7620001 3.062 0.58399999 38
6.7659998 3.063 0.70099998 38
6.7649999 3.062 0.81699997 43
6.7659998 3.0639999 0.935 44
6.757 3.062 1.053 45
6.7509999 3.0639999 1.171 44
0 0 0 50
6.8839998 3.0510001 0.70499998 37
6.8860002 3.0510001 0.824 41
6.8839998 3.0510001 0.94300002 44
6.8800001 3.052 1.063 45
6.8790002 3.0550001 1.184 44
7.006 3.04 0.59100002 39
7.0079999 3.039 0.70999998 39
7.0079999 3.0380001 0.82999998 39
7.0079999 3.039 0.95099998 42
7.0029998 3.039 1.072 43
6.993 3.0380001 1.193 43
7.132 3.0280001 0.59399998 39
7.132 3.0250001 0.71499997 38
7.1290002 3.0220001 0.83600003 40
7.1409998 3.027 0.96100003 42
7.131 3.0250001 1.082 43
7.1329999 3.029 1.207 42
7.2810001 3.023 0.59899998 24
7.2690001 3.0139999 0.72000003 39
7.2649999 3.0109999 0.84399998 40
7.2719998 3.0139999 0.96899998 41
7.283 3.02 1.096 44
7.2659998 3.0150001 1.22 44
7.362 2.987 0.59799999 6
7.4130001 3.0039999 0.727 40
7.4099998 3.0009999 0.852 39
7.4219999 3.0050001 0.98000002 39
7.4219999 3.006 1.107 42
7.4169998 3.006 1.235 43
7.5040002 2.974 0.602 6
7.5580001 2.9909999 0.73299998 39
7.5650001 2.9909999 0.861 39
7.579 2.9960001 0.99199998 39
7.5650001 2.9909999 1.119 42
7.573 2.9949999 1.251 47
7.6479998 2.9590001 0.60600001 7
7.704 2.977 0.73900002 25
7.7129998 2.977 0.87 40
7.7179999 2.9779999 1.001 40
7.7150002 2.9760001 1.132 42
7.717 2.9779999 1.265 44
7.671 2.8959999 0.60000002 2
7.8200002 2.948 0.74199998 4
7.8639998 2.9619999 0.87800002 41
7.8699999 2.9619999 1.011 40
0 0 0 50
7.8660002 2.961 1.279 44
7.6370001 2.8139999 0.58999997 1
7.9640002 2.9289999 0.74800003 3
8.0200005 2.9460001 0.88700002 41
8.0279999 2.9460001 1.023 40
8.0299997 2.9460001 1.159 42
8.0410004 2.95 1.2970001 44
7.704 2.7679999 0.588 2
8.1190004 2.9119999 0.75400001 6
8.2040005 2.938 0.89899999 32
8.1920004 2.931 1.035 41
8.1990004 2.9319999 1.174 41
8.2080002 2.9349999 1.314 41
4.4359999 1.553 0.33500001 9
8.1639996 2.8529999 0.75099999 1
4.3629999 1.522 0.47299999 0
4.3610001 1.52 0.546 0
4.3179998 1.503 0.61299998 11
4.3210001 1.5039999 0.68599999 17
4.3249998 1.474 0.322 10
4.421 1.5039999 0.40200001 7
4.3379998 1.473 0.46599999 11
4.4229999 1.5 0.54900002 4
4.3379998 1.47 0.611 10
4.369 1.48 0.68900001 13
4.3239999 1.4349999 0.31900001 10
4.4489999 1.473 0.40099999 11
4.349 1.437 0.463 14
4.4679999 1.475 0.55000001 12
4.3179998 1.424 0.60399997 18
4.335 1.428 0.67900002 14
4.3270001 1.398 0.315 11
4.3200002 1.392 0.38499999 11
4.335 1.393 0.458 16
4.362 1.4 0.53299999 21
4.3470001 1.393 0.60299999 43
4.3210001 1.383 0.67199999 29
4.3600001 1.369 0.31400001 10
4.3660002 1.367 0.38600001 13
4.3410001 1.3559999 0.454 15
4.3779998 1.365 0.52999997 28
4.3270001 1.347 0.59600002 9
0 0 0 50
4.3720002 1.3329999 0.31200001 11
4.3720002 1.329 0.382 18
4.3470001 1.318 0.45100001 11
4.4689999 1.353 0.537 10
4.3530002 1.3150001 0.59600002 3
4.375 1.3200001 0.671 2
4.3889999 1.299 0.30899999 9
4.4289999 1.307 0.384 9
4.3979998 1.294 0.45300001 11
4.5190001 1.327 0.53899997 0
6.0770001 1.781 0.82599998 90
4.415 1.2920001 0.67299998 5
4.4520001 1.278 0.31099999 16
4.4260001 1.266 0.38 8
4.4200001 1.261 0.45199999 9
6.1609998 1.7539999 0.73000002 72
6.1220002 1.738 0.82599998 74
10.775 3.0550001 1.633 1
4.5609999 1.2690001 0.315 9
4.4689999 1.239 0.38100001 7
6.2179999 1.719 0.63099998 73
6.1869998 1.705 0.72799999 75
6.1469998 1.6900001 0.824 77
10.656 2.924 1.605 3
4.5970001 1.239 0.31400001 1
6.303 1.692 0.53299999 43
6.2529998 1.673 0.62900001 73
6.2179999 1.658 0.727 72
6.1830001 1.6440001 0.824 81
10.462 2.776 1.567 44
7.1490002 1.864 0.484 1
6.4070001 1.664 0.537 16
6.2859998 1.626 0.62800002 71
