# .PCD v0.7 - Point Cloud Data file format
VERSION 0.7
FIELDS x y z intensity
SIZE 4 4 4 4
TYPE F F F F
COUNT 1 1 1 1
WIDTH 1613
HEIGHT 1
VIEWPOINT 0 0 0 1 0 0 0
POINTS 1613
DATA ascii
3.2950001 -1.624 -0.59399998 8
2.7880001 -1.406 -0.755 7
2.869 -1.438 -0.72399998 6
2.9560001 -1.473 -0.69199997 7
3.0699999 -1.523 -0.66299999 7
3.1630001 -1.562 -0.62800002 7
3.2780001 -1.613 -0.59299999 8
2.7820001 -1.401 -0.75599998 6
2.8670001 -1.4349999 -0.72600001 6
2.954 -1.469 -0.69400001 7
3.059 -1.5140001 -0.66299999 8
3.1630001 -1.558 -0.63 8
3.2809999 -1.609 -0.59600002 8
2.7780001 -1.396 -0.75700003 6
2.8599999 -1.428 -0.72600001 6
2.9530001 -1.465 -0.69599998 9
3.059 -1.5089999 -0.66500002 7
3.164 -1.554 -0.63200003 7
3.277 -1.602 -0.597 8
2.776 -1.391 -0.75800002 7
2.8429999 -1.415 -0.72399998 5
2.9530001 -1.46 -0.69700003 7
3.05 -1.5 -0.66500002 7
3.1570001 -1.545 -0.63300002 8
3.2720001 -1.5930001 -0.59799999 8
2.7750001 -1.385 -0.75999999 6
2.859 -1.4170001 -0.72899997 5
2.9560001 -1.456 -0.69999999 7
0 0 0 50
3.1559999 -1.5369999 -0.634 8
3.267 -1.584 -0.59899998 7
2.7690001 -1.377 -0.75999999 6
2.8540001 -1.409 -0.73000002 5
2.9590001 -1.451 -0.70200002 6
3.0510001 -1.487 -0.66900003 7
3.1459999 -1.525 -0.634 7
3.2609999 -1.572 -0.60000002 9
2.766 -1.369 -0.75999999 7
2.8469999 -1.398 -0.72899997 6
2.9519999 -1.4400001 -0.70200002 6
3.05 -1.479 -0.67000002 9
3.1530001 -1.52 -0.63599998 8
3.2650001 -1.5650001 -0.602 8
2.7709999 -1.364 -0.76300001 7
2.855 -1.395 -0.73199999 6
2.9549999 -1.433 -0.70300001 6
3.0439999 -1.467 -0.66900003 7
3.1470001 -1.508 -0.63599998 7
3.2590001 -1.553 -0.602 9
2.7639999 -1.352 -0.76099998 6
2.852 -1.385 -0.73199999 5
2.95 -1.4220001 -0.70300001 6
3.0439999 -1.4579999 -0.67000002 8
3.1489999 -1.498 -0.63700002 8
3.257 -1.541 -0.602 8
2.7679999 -1.346 -0.76300001 5
2.8510001 -1.374 -0.73199999 5
2.938 -1.406 -0.70099998 6
3.0450001 -1.447 -0.671 7
3.1459999 -1.4859999 -0.63700002 9
3.2590001 -1.53 -0.60299999 9
2.7639999 -1.334 -0.76200002 6
2.846 -1.362 -0.73199999 6
2.9389999 -1.396 -0.70099998 7
3.052 -1.4400001 -0.67299998 6
3.1500001 -1.476 -0.63800001 8
3.2620001 -1.5190001 -0.60399997 11
2.7739999 -1.3279999 -0.76499999 7
2.8499999 -1.353 -0.73299998 5
2.947 -1.3890001 -0.704 6
3.049 -1.426 -0.67199999 6
3.145 -1.461 -0.63800001 7
3.2609999 -1.506 -0.60399997 8
2.7679999 -1.314 -0.764 6
2.852 -1.3430001 -0.73299998 6
2.9430001 -1.374 -0.70200002 6
3.0450001 -1.4119999 -0.67199999 6
3.1559999 -1.4529999 -0.63999999 8
3.266 -1.494 -0.60500002 8
2.7739999 -1.293 -0.764 8
2.8510001 -1.317 -0.73199999 10
2.9530001 -1.353 -0.704 6
3.05 -1.386 -0.67199999 7
3.155 -1.423 -0.639 9
3.2709999 -1.466 -0.60500002 8
2.7709999 -1.278 -0.76300001 9
2.855 -1.3049999 -0.73199999 6
2.947 -1.336 -0.70200002 7
3.049 -1.3710001 -0.671 7
3.145 -1.404 -0.63599998 8
3.27 -1.449 -0.60399997 12
2.7720001 -1.265 -0.76200002 10
2.8540001 -1.29 -0.73100001 6
2.957 -1.325 -0.70300001 6
3.049 -1.355 -0.67000002 8
3.1630001 -1.395 -0.639 8
3.2739999 -1.434 -0.60399997 9
2.776 -1.252 -0.76200002 10
2.859 -1.277 -0.73100001 7
2.9590001 -1.311 -0.70300001 6
3.0580001 -1.3430001 -0.671 7
3.164 -1.3789999 -0.63800001 8
3.2690001 -1.414 -0.602 7
2.776 -1.237 -0.76099998 8
2.862 -1.2640001 -0.73100001 7
2.9560001 -1.293 -0.70099998 7
3.0580001 -1.327 -0.67000002 8
3.1689999 -1.364 -0.63800001 7
3.2820001 -1.402 -0.60299999 10
2.7850001 -1.226 -0.76200002 11
2.8670001 -1.25 -0.73100001 7
0 0 0 50
3.0650001 -1.312 -0.67000002 7
3.171 -1.347 -0.63700002 9
3.2909999 -1.387 -0.60399997 8
2.7909999 -1.2130001 -0.76200002 7
2.869 -1.234 -0.72899997 6
2.971 -1.266 -0.70099998 6
3.0710001 -1.2970001 -0.66900003 8
3.175 -1.33 -0.63599998 8
3.2839999 -1.365 -0.60000002 10
2.796 -1.198 -0.76099998 6
2.8770001 -1.221 -0.73000002 6
2.987 -1.255 -0.70300001 6
3.0710001 -1.279 -0.66799998 8
3.181 -1.314 -0.63499999 8
3.2969999 -1.351 -0.60100001 11
2.8 -1.182 -0.75999999 5
2.881 -1.204 -0.72899997 6
2.9790001 -1.233 -0.699 7
3.079 -1.263 -0.667 7
3.184 -1.296 -0.634 7
3.2969999 -1.331 -0.59899998 8
2.7920001 -1.1619999 -0.75599998 5
2.8840001 -1.188 -0.727 5
2.984 -1.217 -0.69800001 6
3.089 -1.249 -0.667 6
3.1930001 -1.279 -0.634 6
3.3099999 -1.3150001 -0.60000002 7
2.8110001 -1.152 -0.759 7
2.8959999 -1.174 -0.72799999 5
2.9920001 -1.201 -0.69800001 6
3.098 -1.232 -0.667 6
3.1989999 -1.261 -0.63300002 7
3.3080001 -1.293 -0.597 9
2.8150001 -1.135 -0.75700003 6
2.8989999 -1.156 -0.72600001 8
3.0120001 -1.1900001 -0.69999999 5
3.1010001 -1.214 -0.66500002 6
3.2060001 -1.243 -0.63200003 6
3.316 -1.275 -0.59600002 7
2.825 -1.12 -0.75700003 6
2.905 -1.1390001 -0.72500002 6
3.0050001 -1.1670001 -0.69599998 6
3.109 -1.196 -0.66399997 7
3.2130001 -1.225 -0.63 6
3.3269999 -1.258 -0.59500003 8
2.8239999 -1.1 -0.75400001 5
2.915 -1.124 -0.72500002 5
0 0 0 50
3.1140001 -1.177 -0.66299999 7
3.2179999 -1.205 -0.62900001 6
3.3369999 -1.239 -0.59500003 9
2.826 -1.082 -0.75199997 8
2.915 -1.104 -0.722 5
3.0120001 -1.1289999 -0.69199997 7
3.118 -1.1569999 -0.66100001 6
3.2249999 -1.1849999 -0.62699997 7
3.3380001 -1.216 -0.59200001 9
2.8380001 -1.066 -0.75199997 7
2.925 -1.087 -0.72100002 6
3.0209999 -1.1109999 -0.69099998 7
3.122 -1.137 -0.65899998 8
3.2349999 -1.1670001 -0.62599999 6
3.3529999 -1.198 -0.59200001 7
2.8529999 -1.051 -0.75199997 6
2.9300001 -1.068 -0.71899998 6
3.0280001 -1.092 -0.68900001 6
3.135 -1.119 -0.65799999 6
3.24 -1.145 -0.62400001 6
3.3540001 -1.175 -0.58899999 7
2.8540001 -1.031 -0.74900001 8
2.9419999 -1.051 -0.71899998 6
3.039 -1.074 -0.68900001 5
3.141 -1.099 -0.65600002 7
3.2539999 -1.127 -0.62400001 7
3.3629999 -1.154 -0.588 10
2.858 -1.011 -0.74699998 5
2.944 -1.03 -0.71600002 6
3.039 -1.052 -0.685 6
3.155 -1.081 -0.65600002 6
3.2539999 -1.103 -0.62099999 9
3.3729999 -1.133 -0.58600003 9
2.868 -0.99299997 -0.74599999 7
2.95 -1.01 -0.71499997 8
3.052 -1.034 -0.685 6
3.158 -1.059 -0.65399998 7
3.2620001 -1.082 -0.61900002 9
3.375 -1.109 -0.583 7
2.8800001 -0.97600001 -0.74599999 6
2.9560001 -0.99000001 -0.71200001 8
3.076 -1.0190001 -0.68699998 5
3.1630001 -1.0369999 -0.65100002 8
3.27 -1.061 -0.61699998 7
3.3900001 -1.089 -0.58200002 10
2.888 -0.95700002 -0.745 7
2.97 -0.97299999 -0.71200001 7
3.0769999 -0.99699998 -0.68400002 6
3.177 -1.018 -0.65100002 7
3.2850001 -1.0420001 -0.61699998 6
3.401 -1.068 -0.58099997 9
2.895 -0.93699998 -0.74299997 7
2.9779999 -0.95200002 -0.71100003 5
3.0769999 -0.97299999 -0.68000001 6
3.1830001 -0.99599999 -0.648 6
3.2939999 -1.02 -0.61500001 6
3.4100001 -1.045 -0.579 9
2.8959999 -0.91500002 -0.73900002 8
0 0 0 50
3.082 -0.95099998 -0.67799997 6
3.191 -0.97399998 -0.64700001 6
3.303 -0.99800003 -0.61299998 6
3.4189999 -1.022 -0.57700002 9
2.908 -0.89600003 -0.73900002 7
2.9920001 -0.91100001 -0.70700002 5
3.099 -0.93300003 -0.67799997 6
3.2060001 -0.954 -0.64600003 6
3.3050001 -0.97399998 -0.61000001 7
3.424 -0.99800003 -0.57499999 8
2.9159999 -0.87599999 -0.73699999 7
3.0050001 -0.89200002 -0.70599997 6
3.0969999 -0.90799999 -0.67400002 7
3.214 -0.93199998 -0.64399999 6
3.323 -0.95300001 -0.61000001 6
3.4349999 -0.97500002 -0.57300001 6
2.925 -0.85600001 -0.736 8
3.0109999 -0.87 -0.704 6
3.1259999 -0.89200002 -0.67699999 5
3.223 -0.91000003 -0.64200002 6
3.326 -0.92900002 -0.60699999 7
3.4419999 -0.95099998 -0.57099998 9
2.9300001 -0.83399999 -0.73299998 8
3.0190001 -0.84799999 -0.70200002 5
3.115 -0.86500001 -0.67000002 6
3.23 -0.88700002 -0.63999999 5
3.3280001 -0.903 -0.60399997 8
3.4649999 -0.93099999 -0.57099998 7
2.938 -0.81300002 -0.73100001 7
3.027 -0.82700002 -0.69999999 5
3.1340001 -0.84600002 -0.671 5
3.2279999 -0.861 -0.63599998 6
3.3469999 -0.88300002 -0.60299999 6
3.4590001 -0.90200001 -0.56599998 8
2.954 -0.79400003 -0.73199999 5
3.0339999 -0.80500001 -0.69800001 6
3.142 -0.82300001 -0.66900003 5
3.247 -0.83999997 -0.63599998 8
3.3540001 -0.85799998 -0.60100001 5
3.4779999 -0.88 -0.56599998 8
2.9560001 -0.76999998 -0.72799999 7
3.053 -0.78500003 -0.699 5
3.152 -0.801 -0.66799998 6
3.2579999 -0.81800002 -0.63499999 5
3.3670001 -0.83499998 -0.60000002 7
3.49 -0.85600001 -0.56400001 6
2.964 -0.74800003 -0.727 8
3.056 -0.76200002 -0.69599998 5
3.1670001 -0.77899998 -0.667 5
3.2590001 -0.792 -0.63200003 6
3.3740001 -0.81099999 -0.59799999 7
3.4990001 -0.83099997 -0.56199998 10
2.973 -0.727 -0.72500002 10
3.0599999 -0.73799998 -0.69300002 5
3.1730001 -0.755 -0.66500002 5
3.2720001 -0.76899999 -0.63099998 6
3.3889999 -0.787 -0.597 6
3.5109999 -0.80599999 -0.56099999 7
2.98 -0.704 -0.72299999 8
3.075 -0.71700001 -0.69300002 5
3.178 -0.73100001 -0.662 5
3.286 -0.74699998 -0.63 5
3.3970001 -0.76300001 -0.59500003 6
3.5150001 -0.77999997 -0.55800003 7
2.984 -0.68099999 -0.72100002 9
3.079 -0.69300002 -0.69 6
3.1730001 -0.70499998 -0.65799999 7
3.2839999 -0.72000003 -0.62599999 6
3.402 -0.736 -0.59200001 5
3.5239999 -0.75400001 -0.55599999 7
2.9960001 -0.65899998 -0.72000003 7
0 0 0 50
3.1860001 -0.68199998 -0.65700001 6
3.3 -0.69700003 -0.62599999 6
3.408 -0.71100003 -0.58999997 7
3.5309999 -0.727 -0.55400002 8
3.0020001 -0.63599998 -0.71799999 9
3.098 -0.64700001 -0.68800002 7
3.2019999 -0.65899998 -0.65700001 5
3.3110001 -0.67299998 -0.62400001 6
3.4170001 -0.685 -0.588 6
3.5439999 -0.70200002 -0.55299997 8
3.0179999 -0.61500001 -0.71799999 10
3.0999999 -0.62199998 -0.685 6
3.2079999 -0.63499999 -0.65499997 6
3.319 -0.648 -0.62199998 5
3.4330001 -0.66100001 -0.588 6
3.559 -0.67699999 -0.55199999 7
3.0209999 -0.58999997 -0.71600002 9
3.1059999 -0.59799999 -0.68300003 6
3.2279999 -0.61299998 -0.65600002 5
3.329 -0.62300003 -0.62099999 5
3.444 -0.63599998 -0.58700001 6
3.5669999 -0.64999998 -0.55000001 7
3.036 -0.56900001 -0.71600002 6
3.1170001 -0.57499999 -0.68199998 7
3.221 -0.58600003 -0.65100002 6
3.3329999 -0.597 -0.61900002 6
3.448 -0.61000001 -0.58399999 5
3.575 -0.62300003 -0.54799998 8
3.03 -0.54299998 -0.71100003 8
3.138 -0.55299997 -0.68400002 5
3.2290001 -0.56099999 -0.64999998 6
3.3469999 -0.57300001 -0.61799997 5
3.4530001 -0.583 -0.58200002 5
3.5840001 -0.597 -0.54699999 6
3.043 -0.51999998 -0.71100003 10
0 0 0 50
3.24 -0.537 -0.64899999 6
3.3510001 -0.54699999 -0.616 7
3.4690001 -0.55800003 -0.58200002 6
3.5910001 -0.56900001 -0.54500002 8
3.0480001 -0.49599999 -0.70899999 8
3.142 -0.50300002 -0.67900002 7
3.2590001 -0.514 -0.64999998 5
3.3599999 -0.52100003 -0.61500001 5
3.477 -0.53200001 -0.57999998 5
3.599 -0.542 -0.54299998 8
3.0580001 -0.472 -0.70899999 10
3.152 -0.479 -0.67799997 5
3.2479999 -0.486 -0.64499998 6
3.375 -0.49700001 -0.61500001 5
3.484 -0.505 -0.579 5
3.605 -0.514 -0.54100001 7
3.059 -0.44800001 -0.70599997 5
3.1570001 -0.454 -0.676 6
3.2579999 -0.461 -0.64399999 6
3.372 -0.46900001 -0.61199999 6
3.4949999 -0.47799999 -0.57800001 5
3.6229999 -0.48800001 -0.54100001 6
3.0739999 -0.42399999 -0.70700002 7
3.1630001 -0.42899999 -0.67500001 6
3.2780001 -0.43700001 -0.64600003 5
3.3840001 -0.44299999 -0.61199999 6
3.5039999 -0.45100001 -0.57700002 5
3.6259999 -0.45899999 -0.53899997 7
0 0 0 50
3.1659999 -0.40400001 -0.67299998 7
3.279 -0.41 -0.64300001 5
3.3929999 -0.417 -0.611 5
3.5150001 -0.42500001 -0.57599998 5
3.642 -0.433 -0.53899997 6
3.0880001 -0.375 -0.70499998 7
3.175 -0.37900001 -0.67299998 6
3.2839999 -0.384 -0.64200002 5
3.3970001 -0.38999999 -0.60900003 5
3.5179999 -0.396 -0.574 6
3.6370001 -0.40200001 -0.53600001 8
3.085 -0.34900001 -0.70200002 7
3.184 -0.35299999 -0.67199999 5
3.2950001 -0.359 -0.64200002 5
3.4070001 -0.36399999 -0.60900003 5
3.5179999 -0.368 -0.57200003 5
3.6500001 -0.375 -0.53600001 6
3.098 -0.32499999 -0.70300001 7
3.184 -0.32800001 -0.67000002 6
3.2950001 -0.33199999 -0.63999999 5
3.418 -0.33700001 -0.60900003 5
3.529 -0.34099999 -0.57200003 5
3.6559999 -0.34599999 -0.53500003 6
3.1070001 -0.301 -0.70300001 6
3.197 -0.303 -0.671 5
3.3080001 -0.30599999 -0.63999999 5
3.421 -0.31 -0.60699999 5
3.5450001 -0.31400001 -0.57300001 6
3.6670001 -0.31799999 -0.53500003 6
3.1110001 -0.27500001 -0.70200002 7
3.2 -0.27700001 -0.67000002 6
3.3169999 -0.28 -0.63999999 5
3.425 -0.28299999 -0.60600001 5
3.5439999 -0.28600001 -0.57099998 6
3.6719999 -0.289 -0.53399998 6
3.1170001 -0.25 -0.70200002 8
3.21 -0.25099999 -0.67000002 6
3.3239999 -0.25299999 -0.63999999 5
3.4300001 -0.255 -0.60500002 6
3.5450001 -0.257 -0.56900001 5
3.677 -0.25999999 -0.53299999 6
3.1259999 -0.22499999 -0.70200002 6
3.217 -0.22499999 -0.67000002 5
3.3199999 -0.226 -0.63800001 5
3.441 -0.228 -0.60600001 5
3.5569999 -0.229 -0.56999999 5
3.677 -0.23 -0.53100002 7
3.1259999 -0.199 -0.70099998 6
3.221 -0.199 -0.66900003 5
3.3299999 -0.199 -0.63800001 5
3.447 -0.2 -0.60500002 4
3.556 -0.2 -0.56800002 5
3.6849999 -0.20100001 -0.53100002 7
3.128 -0.17299999 -0.69999999 5
3.227 -0.17299999 -0.66900003 5
3.3299999 -0.17200001 -0.63700002 5
3.4489999 -0.17200001 -0.60399997 6
0 0 0 50
3.6900001 -0.17200001 -0.53100002 8
3.1340001 -0.147 -0.69999999 5
3.23 -0.146 -0.66900003 5
3.3429999 -0.146 -0.63800001 5
3.46 -0.145 -0.60500002 5
3.579 -0.14399999 -0.56999999 5
3.7060001 -0.14300001 -0.53200001 6
3.1440001 -0.122 -0.70099998 5
3.2390001 -0.12 -0.66900003 5
3.2969999 -0.117 -0.62800002 4
3.4579999 -0.117 -0.60399997 5
3.579 -0.115 -0.56900001 5
3.7130001 -0.113 -0.53200001 7
3.142 -0.096000001 -0.69999999 6
3.2449999 -0.093000002 -0.67000002 4
3.3469999 -0.090999998 -0.63700002 5
3.4630001 -0.089000002 -0.60399997 5
3.5810001 -0.086000003 -0.56800002 6
3.704 -0.083999999 -0.52999997 8
3.1429999 -0.07 -0.699 6
3.2409999 -0.067000002 -0.66799998 5
3.349 -0.064000003 -0.63700002 5
3.4660001 -0.059999999 -0.60399997 4
3.586 -0.057 -0.56800002 6
3.7130001 -0.054000001 -0.53100002 6
3.1530001 -0.044 -0.70099998 6
3.2509999 -0.039999999 -0.67000002 5
3.3599999 -0.035999998 -0.63800001 5
3.4530001 -0.032000002 -0.60100001 4
3.595 -0.028000001 -0.56900001 5
3.72 -0.024 -0.53100002 6
3.155 -0.017999999 -0.70099998 4
3.2590001 -0.013 -0.671 4
3.359 -0.0089999996 -0.63800001 5
3.4749999 -0.0040000002 -0.60500002 5
3.5969999 0 -0.56900001 6
3.7290001 0.0049999999 -0.53200001 6
3.155 0.0080000004 -0.69999999 5
3.2479999 0.012 -0.66900003 6
3.3710001 0.017999999 -0.63999999 5
3.473 0.023 -0.60399997 5
3.602 0.028999999 -0.56999999 6
3.721 0.035 -0.53100002 9
3.1570001 0.034000002 -0.70099998 6
3.2620001 0.039000001 -0.671 4
3.3770001 0.045000002 -0.64099997 4
3.477 0.050999999 -0.60500002 5
3.599 0.057999998 -0.56900001 5
3.7320001 0.064999998 -0.53299999 8
3.164 0.059999999 -0.70300001 5
3.2539999 0.066 -0.67000002 5
3.3770001 0.072999999 -0.64099997 5
3.4790001 0.079999998 -0.60500002 5
3.605 0.086999997 -0.56999999 5
3.7219999 0.094999999 -0.53100002 9
3.165 0.086999997 -0.70300001 4
3.26 0.093000002 -0.671 5
3.3789999 0.101 -0.64200002 5
3.4909999 0.109 -0.60799998 5
3.6040001 0.117 -0.57099998 6
3.734 0.125 -0.53299999 7
3.1589999 0.113 -0.70200002 5
3.23 0.119 -0.66600001 4
3.368 0.12800001 -0.63999999 5
3.477 0.13600001 -0.60600001 4
0 0 0 50
3.7309999 0.155 -0.53299999 6
3.1600001 0.139 -0.70300001 7
3.2650001 0.147 -0.67299998 5
3.3729999 0.156 -0.64200002 5
3.4920001 0.16500001 -0.60900003 5
3.6110001 0.175 -0.57300001 5
3.733 0.185 -0.53399998 6
3.168 0.16599999 -0.70499998 6
3.2620001 0.17399999 -0.67299998 6
3.382 0.184 -0.64399999 5
3.48 0.193 -0.60799998 4
3.612 0.205 -0.574 5
3.7379999 0.21600001 -0.53600001 6
3.1659999 0.192 -0.70599997 6
3.263 0.20100001 -0.67500001 5
3.381 0.212 -0.64499998 5
3.493 0.223 -0.611 5
3.5769999 0.23199999 -0.56900001 4
3.7390001 0.24600001 -0.537 7
3.168 0.219 -0.70700002 5
3.2639999 0.229 -0.676 5
3.378 0.23999999 -0.64499998 5
3.467 0.249 -0.60699999 4
3.6159999 0.264 -0.57700002 5
3.7360001 0.27599999 -0.537 5
3.165 0.245 -0.708 5
3.263 0.255 -0.67699999 5
3.3789999 0.26699999 -0.64700001 5
3.4749999 0.278 -0.61000001 4
3.6110001 0.29300001 -0.57700002 5
3.733 0.30599999 -0.53799999 6
3.164 0.271 -0.70899999 5
3.263 0.28299999 -0.67799997 5
3.345 0.29300001 -0.64099997 4
3.4909999 0.30899999 -0.61400002 5
3.6070001 0.322 -0.57800001 5
3.744 0.338 -0.54100001 6
3.165 0.29800001 -0.71100003 5
3.2590001 0.31 -0.67900002 4
3.3829999 0.324 -0.64999998 5
3.483 0.336 -0.61400002 4
3.6110001 0.352 -0.57999998 5
3.74 0.368 -0.542 6
3.161 0.324 -0.71100003 5
3.2639999 0.33700001 -0.68099999 5
3.3759999 0.35100001 -0.65100002 5
3.484 0.36500001 -0.616 5
3.609 0.38100001 -0.58099997 5
3.743 0.39899999 -0.54400003 6
3.1630001 0.35100001 -0.71399999 5
3.26 0.36399999 -0.68199998 5
3.369 0.37900001 -0.65100002 5
3.467 0.39199999 -0.61500001 4
3.6010001 0.41 -0.58200002 5
3.727 0.42699999 -0.54400003 6
3.1559999 0.377 -0.71399999 5
3.26 0.391 -0.685 5
3.3789999 0.40799999 -0.65499997 5
3.48 0.42199999 -0.61900002 4
3.6040001 0.44 -0.58399999 5
3.7260001 0.45699999 -0.546 7
3.1589999 0.40400001 -0.71700001 4
3.257 0.41800001 -0.68599999 5
3.3740001 0.435 -0.65600002 4
3.4820001 0.45100001 -0.62099999 5
3.6110001 0.47 -0.58700001 5
3.73 0.48800001 -0.54799998 5
3.1500001 0.42899999 -0.71700001 4
3.2579999 0.44499999 -0.68800002 4
3.3099999 0.454 -0.64600003 3
0 0 0 50
3.6040001 0.49900001 -0.588 5
3.7279999 0.51800001 -0.55000001 6
3.1500001 0.456 -0.71899998 5
3.247 0.47099999 -0.68800002 5
3.359 0.48899999 -0.65799999 5
3.4790001 0.50800002 -0.62599999 5
3.595 0.52600002 -0.58899999 5
3.7219999 0.54699999 -0.55199999 6
3.152 0.48199999 -0.722 4
3.2449999 0.49700001 -0.69 5
3.3599999 0.51599997 -0.66100001 5
3.4630001 0.53399998 -0.625 4
3.6029999 0.55699998 -0.59299999 5
3.734 0.57999998 -0.55599999 5
3.1429999 0.50700003 -0.72299999 4
3.2420001 0.52399999 -0.69199997 6
3.352 0.54299998 -0.66100001 6
3.474 0.56400001 -0.63 5
3.6070001 0.588 -0.597 6
3.717 0.60699999 -0.55599999 7
3.1459999 0.53399998 -0.72600001 6
3.243 0.551 -0.69499999 5
3.3659999 0.57300001 -0.667 5
3.4690001 0.59200001 -0.63200003 6
3.5910001 0.61400002 -0.597 5
3.72 0.63800001 -0.55900002 6
3.1429999 0.56 -0.72899997 6
3.237 0.57700002 -0.69700003 6
3.3570001 0.59899998 -0.66799998 5
3.46 0.61900002 -0.63300002 5
3.5650001 0.63800001 -0.59500003 5
3.71 0.66600001 -0.56099999 7
3.142 0.58600003 -0.73100001 5
3.237 0.60399997 -0.69999999 5
3.355 0.62599999 -0.671 5
3.4579999 0.64600003 -0.63499999 5
3.5799999 0.67000002 -0.60000002 5
3.707 0.69499999 -0.56300002 6
3.1359999 0.611 -0.73299998 7
3.2290001 0.62900001 -0.70099998 5
3.3510001 0.653 -0.67299998 5
3.45 0.67299998 -0.63700002 5
3.579 0.699 -0.60299999 6
3.7 0.72399998 -0.565 6
3.135 0.63700002 -0.736 6
3.223 0.65499997 -0.70300001 5
3.348 0.68000001 -0.676 5
3.461 0.704 -0.64200002 6
3.582 0.72899997 -0.60699999 6
3.6989999 0.75400001 -0.56800002 7
3.1270001 0.662 -0.73799998 6
3.2190001 0.68099999 -0.70599997 6
3.3429999 0.70700002 -0.67799997 5
0 0 0 50
3.579 0.75700003 -0.61000001 6
3.6960001 0.78299999 -0.57099998 7
3.1210001 0.68699998 -0.74000001 7
3.2179999 0.70700002 -0.70899999 5
3.3239999 0.73000002 -0.67699999 6
3.4419999 0.75599998 -0.64499998 5
3.572 0.78500003 -0.61199999 6
3.6949999 0.81199998 -0.574 7
3.119 0.71200001 -0.74299997 6
3.221 0.73400003 -0.713 5
3.325 0.75800002 -0.68099999 6
3.4360001 0.78299999 -0.648 5
3.5550001 0.81 -0.61299998 5
3.691 0.84100002 -0.57700002 6
3.1110001 0.736 -0.74400002 6
3.2060001 0.75800002 -0.713 6
3.323 0.78500003 -0.68400002 6
3.431 0.80900002 -0.64999998 5
3.556 0.83899999 -0.616 5
3.6789999 0.86799997 -0.579 6
3.105 0.76099998 -0.74699998 10
3.2049999 0.78399998 -0.71700001 5
3.312 0.80900002 -0.685 6
3.4289999 0.83700001 -0.653 6
0 0 0 0
3.6789999 0.898 -0.58200002 6
3.1070001 0.787 -0.75099999 5
3.2 0.81 -0.71899998 7
3.303 0.83399999 -0.68699998 6
3.427 0.86500001 -0.65700001 6
3.5409999 0.89300001 -0.62099999 6
3.6819999 0.92799997 -0.58600003 6
3.0999999 0.81099999 -0.75300002 6
3.1919999 0.83399999 -0.72100002 6
3.3169999 0.86500001 -0.69400001 5
3.4089999 0.88800001 -0.65700001 5
3.529 0.91900003 -0.62199998 5
3.6760001 0.95599997 -0.58899999 6
3.1010001 0.838 -0.75700003 6
3.191 0.86000001 -0.72500002 5
3.3099999 0.89099997 -0.69700003 5
3.4170001 0.91799998 -0.662 6
3.5309999 0.94800001 -0.62599999 6
3.665 0.98299998 -0.59100002 6
3.0880001 0.86000001 -0.75800002 6
3.1860001 0.88499999 -0.72799999 5
3.2909999 0.912 -0.69599998 6
3.4089999 0.94300002 -0.66500002 5
3.5280001 0.97500002 -0.63 6
3.654 1.0089999 -0.59299999 6
3.0810001 0.88300002 -0.75999999 5
3.178 0.90899998 -0.73000002 6
3.303 0.94199997 -0.70300001 5
3.3970001 0.96799999 -0.66600001 5
3.52 1.001 -0.63200003 6
3.6489999 1.0369999 -0.59600002 7
3.079 0.90799999 -0.764 6
3.1760001 0.93400002 -0.73299998 6
3.29 0.96600002 -0.704 6
3.402 0.99699998 -0.671 7
3.5139999 1.028 -0.63499999 5
3.641 1.064 -0.59799999 6
3.0769999 0.93300003 -0.76700002 6
3.1700001 0.958 -0.736 6
3.2809999 0.99000001 -0.70599997 6
3.3889999 1.02 -0.67199999 5
3.494 1.05 -0.63499999 5
3.6500001 1.095 -0.60399997 6
3.069 0.95599997 -0.76899999 5
3.1619999 0.98199999 -0.73799998 5
3.283 1.016 -0.70999998 5
3.3870001 1.046 -0.676 6
3.507 1.081 -0.64099997 5
3.642 1.122 -0.60600001 7
3.0669999 0.98000002 -0.773 7
3.155 1.005 -0.741 7
3.279 1.0420001 -0.713 6
3.385 1.073 -0.67900002 7
3.4979999 1.107 -0.64399999 6
3.6300001 1.147 -0.60799998 7
3.056 1.002 -0.77499998 8
3.1459999 1.028 -0.74299997 6
3.2609999 1.062 -0.71399999 7
3.3710001 1.096 -0.68000001 7
3.4949999 1.133 -0.64700001 6
3.625 1.174 -0.611 7
3.0480001 1.024 -0.77700001 8
3.148 1.054 -0.74699998 6
3.263 1.089 -0.71799999 6
3.365 1.12 -0.68300003 7
3.4890001 1.159 -0.64999998 7
3.6210001 1.201 -0.61400002 7
3.0439999 1.0470001 -0.77999997 8
3.1370001 1.075 -0.74800003 7
3.2620001 1.115 -0.722 6
3.369 1.148 -0.68800002 7
3.4849999 1.1849999 -0.653 6
3.608 1.225 -0.616 7
0 0 0 50
3.1359999 1.1 -0.75199997 6
3.2520001 1.137 -0.72399998 7
3.3629999 1.1720001 -0.69 7
3.473 1.2079999 -0.65399998 6
3.6040001 1.251 -0.61900002 7
3.0339999 1.0930001 -0.78500003 6
3.1259999 1.1210001 -0.75400001 5
3.24 1.158 -0.72500002 7
3.358 1.197 -0.69300002 7
3.477 1.2359999 -0.65899998 7
3.605 1.279 -0.62300003 7
3.0250001 1.114 -0.787 8
3.1270001 1.146 -0.75800002 6
3.2360001 1.182 -0.72799999 7
3.3499999 1.22 -0.69499999 7
3.471 1.261 -0.662 7
3.6029999 1.306 -0.62599999 7
3.016 1.1339999 -0.78899997 10
3.125 1.17 -0.76099998 6
3.2390001 1.209 -0.73199999 6
3.3369999 1.2410001 -0.69599998 7
3.464 1.285 -0.66399997 7
3.592 1.329 -0.62800002 7
3.02 1.159 -0.79299998 5
3.115 1.191 -0.76300001 6
3.2349999 1.232 -0.73500001 6
3.3429999 1.2690001 -0.70200002 7
3.4389999 1.301 -0.66299999 5
3.5880001 1.355 -0.63099998 7
3.0090001 1.179 -0.79500002 7
3.115 1.215 -0.76700002 6
3.2309999 1.255 -0.73799998 6
3.326 1.2869999 -0.70099998 6
3.447 1.33 -0.66799998 5
3.5829999 1.38 -0.63300002 7
3.0079999 1.201 -0.79799998 6
3.0999999 1.232 -0.76700002 6
3.221 1.275 -0.73900002 6
3.3210001 1.311 -0.704 6
3.447 1.3559999 -0.671 6
3.5510001 1.393 -0.63099998 6
3.007 1.224 -0.801 6
3.1029999 1.257 -0.77100003 6
3.223 1.3 -0.74299997 6
3.3239999 1.336 -0.708 6
3.448 1.382 -0.67500001 7
3.573 1.428 -0.63800001 7
2.9960001 1.2410001 -0.80199999 7
3.0969999 1.277 -0.773 6
3.2130001 1.3200001 -0.74400002 6
3.319 1.358 -0.70999998 6
3.437 1.402 -0.676 6
3.5699999 1.452 -0.64099997 7
2.993 1.262 -0.80500001 6
3.0899999 1.2970001 -0.77399999 6
3.2 1.337 -0.745 6
3.312 1.3789999 -0.71200001 6
3.4059999 1.413 -0.67299998 5
3.5469999 1.4680001 -0.63999999 6
2.9920001 1.283 -0.80800003 6
3.089 1.318 -0.77700001 6
3.21 1.364 -0.75 6
3.3050001 1.399 -0.71399999 5
3.427 1.446 -0.68000001 6
3.53 1.4859999 -0.63999999 6
2.951 1.2869999 -0.80000001 4
3.089 1.34 -0.77999997 6
3.2019999 1.383 -0.75099999 6
3.2969999 1.418 -0.71499997 6
3.4360001 1.474 -0.685 6
3.523 1.506 -0.64099997 5
2.98 1.3200001 -0.81099999 8
3.075 1.355 -0.77999997 6
3.201 1.405 -0.75400001 6
3.279 1.433 -0.71399999 5
3.414 1.487 -0.68300003 5
3.549 1.541 -0.648 6
2.9760001 1.3380001 -0.81199998 7
3.0829999 1.3789999 -0.78500003 6
3.1619999 1.408 -0.74699998 5
3.3010001 1.464 -0.72100002 6
3.4100001 1.507 -0.685 6
3.5109999 1.548 -0.64399999 5
2.98 1.36 -0.81599998 6
3.072 1.395 -0.78500003 6
3.184 1.439 -0.755 6
3.289 1.4809999 -0.72100002 7
3.395 1.523 -0.68400002 6
3.5209999 1.575 -0.648 6
2.974 1.377 -0.81699997 7
3.0739999 1.416 -0.78799999 6
3.1630001 1.45 -0.75300002 6
3.2869999 1.501 -0.72299999 6
3.3940001 1.544 -0.68599999 6
0 0 0 50
2.9749999 1.397 -0.81999999 6
3.0680001 1.432 -0.78799999 7
3.178 1.477 -0.75800002 6
3.2780001 1.517 -0.72299999 6
3.3740001 1.556 -0.68400002 4
3.5150001 1.6160001 -0.65100002 6
2.9719999 1.414 -0.82099998 6
3.066 1.45 -0.79000002 6
3.1819999 1.498 -0.76099998 7
3.286 1.54 -0.727 6
3.3759999 1.577 -0.68599999 5
3.51 1.6339999 -0.65200001 6
2.971 1.431 -0.82300001 6
3.0639999 1.4680001 -0.79100001 6
3.1730001 1.512 -0.76099998 6
3.2809999 1.557 -0.727 7
3.3900001 1.603 -0.69099998 6
3.54 1.669 -0.65899998 7
2.9719999 1.448 -0.82499999 6
3.0610001 1.484 -0.792 6
3.1800001 1.534 -0.764 6
3.283 1.577 -0.72899997 7
3.388 1.6210001 -0.69199997 6
3.503 1.671 -0.653 6
2.9649999 1.462 -0.82499999 6
3.0569999 1.499 -0.79299998 6
3.178 1.551 -0.76499999 7
3.2850001 1.596 -0.73100001 7
3.3970001 1.6440001 -0.69499999 6
3.5409999 1.709 -0.662 7
2.9779999 1.484 -0.82999998 5
3.052 1.513 -0.79299998 7
3.1489999 1.553 -0.759 6
3.2739999 1.607 -0.72899997 6
3.3989999 1.663 -0.69599998 7
3.5139999 1.7130001 -0.65700001 7
2.961 1.4910001 -0.82599998 6
3.0569999 1.531 -0.79500002 6
3.168 1.5779999 -0.76499999 7
3.2750001 1.625 -0.73100001 6
3.4000001 1.6799999 -0.69700003 6
3.5090001 1.729 -0.65700001 6
2.9619999 1.506 -0.82700002 7
3.059 1.5470001 -0.796 6
3.168 1.594 -0.76599997 7
3.27 1.638 -0.73000002 6
3.4000001 1.697 -0.69800001 6
3.5039999 1.743 -0.65700001 6
2.9619999 1.52 -0.82800001 5
3.059 1.561 -0.79699999 6
3.177 1.613 -0.76800001 7
3.2460001 1.641 -0.72500002 5
3.385 1.705 -0.69499999 6
3.5090001 1.761 -0.65799999 6
2.9690001 1.5369999 -0.82999998 5
3.059 1.574 -0.79699999 5
3.161 1.618 -0.76499999 6
0 0 0 50
3.3929999 1.723 -0.69700003 6
3.5150001 1.779 -0.65899998 6
2.9649999 1.5470001 -0.82999998 6
3.059 1.587 -0.79699999 6
3.151 1.627 -0.76200002 6
3.2650001 1.678 -0.73000002 6
3.3989999 1.74 -0.69800001 7
3.5109999 1.7920001 -0.65799999 6
2.9619999 1.557 -0.829 6
3.0639999 1.601 -0.79900002 7
3.1429999 1.6339999 -0.75999999 6
3.266 1.691 -0.72899997 6
3.385 1.7460001 -0.69400001 6
3.506 1.802 -0.65700001 5
2.9649999 1.569 -0.829 6
3.0639999 1.612 -0.79799998 6
3.1440001 1.646 -0.75999999 6
3.2539999 1.696 -0.727 5
3.375 1.752 -0.69199997 5
3.5109999 1.817 -0.65700001 6
2.9690001 1.581 -0.82999998 6
3.0650001 1.623 -0.79799998 7
3.1600001 1.665 -0.76300001 6
3.2620001 1.711 -0.727 5
3.3870001 1.77 -0.69400001 5
3.5139999 1.83 -0.65700001 6
2.948 1.579 -0.82300001 5
3.0699999 1.635 -0.79799998 7
3.1500001 1.669 -0.75999999 6
3.27 1.725 -0.72799999 6
3.3840001 1.778 -0.69199997 5
3.5139999 1.84 -0.65499997 6
2.9749999 1.601 -0.82999998 6
3.066 1.641 -0.796 6
3.171 1.689 -0.764 9
3.277 1.737 -0.72799999 6
3.3900001 1.79 -0.69199997 5
3.53 1.858 -0.65700001 7
2.977 1.61 -0.829 6
3.0650001 1.648 -0.79500002 6
3.181 1.701 -0.76499999 6
3.2750001 1.744 -0.72600001 6
3.3959999 1.802 -0.69099998 6
3.53 1.867 -0.65499997 6
2.974 1.614 -0.82599998 6
3.075 1.659 -0.79500002 6
3.164 1.699 -0.759 6
3.2820001 1.7539999 -0.72600001 6
3.405 1.813 -0.69099998 6
3.5420001 1.88 -0.65499997 7
2.9820001 1.624 -0.82700002 6
3.079 1.6670001 -0.79500002 7
3.155 1.7 -0.755 5
3.299 1.77 -0.72799999 6
3.4089999 1.821 -0.69 6
3.533 1.882 -0.65200001 6
2.987 1.631 -0.82599998 6
3.0840001 1.674 -0.79400003 7
3.1600001 1.707 -0.75400001 6
3.2909999 1.77 -0.72399998 6
3.4089999 1.826 -0.68800002 6
3.55 1.896 -0.65200001 7
2.9909999 1.636 -0.82499999 6
3.089 1.6799999 -0.79299998 7
3.1900001 1.726 -0.759 6
3.2880001 1.772 -0.72100002 5
3.411 1.831 -0.68599999 5
3.5469999 1.898 -0.64899999 6
2.9920001 1.6390001 -0.82300001 6
3.089 1.683 -0.79000002 7
3.174 1.72 -0.75199997 6
3.2980001 1.78 -0.72100002 5
3.425 1.841 -0.68599999 5
3.5510001 1.903 -0.64700001 6
2.9960001 1.642 -0.82099998 7
3.102 1.691 -0.79100001 6
3.1719999 1.72 -0.74900001 5
3.306 1.785 -0.71899998 6
3.428 1.845 -0.68300003 5
3.559 1.909 -0.64600003 6
2.9979999 1.6440001 -0.81900001 7
3.108 1.6950001 -0.79000002 6
3.1789999 1.725 -0.74800003 5
3.3150001 1.791 -0.71799999 6
3.431 1.847 -0.68099999 5
3.566 1.914 -0.64399999 6
3.0090001 1.649 -0.81900001 7
3.102 1.691 -0.78500003 6
3.188 1.729 -0.74699998 5
3.3269999 1.796 -0.71799999 6
3.438 1.85 -0.67900002 5
3.5710001 1.916 -0.64099997 6
3.017 1.651 -0.81800002 6
3.1029999 1.689 -0.78200001 6
3.1949999 1.7309999 -0.745 5
3.3540001 1.809 -0.72000003 7
3.444 1.851 -0.67699999 6
3.582 1.92 -0.63999999 6
3.017 1.649 -0.815 7
3.1170001 1.694 -0.78200001 6
3.2090001 1.7359999 -0.745 6
3.3559999 1.808 -0.71700001 7
3.46 1.857 -0.676 7
3.5929999 1.9220001 -0.63800001 6
3.026 1.65 -0.81400001 6
0 0 0 50
3.2090001 1.732 -0.741 6
3.3629999 1.807 -0.71499997 7
3.467 1.857 -0.67400002 6
3.5929999 1.919 -0.634 6
3.0309999 1.648 -0.81099999 7
3.1389999 1.697 -0.77999997 6
3.2160001 1.7309999 -0.73900002 6
3.3410001 1.79 -0.70599997 6
3.4679999 1.852 -0.67000002 6
3.6040001 1.919 -0.63200003 6
3.039 1.646 -0.80900002 7
3.1329999 1.688 -0.77499998 6
3.223 1.729 -0.73699999 6
3.3429999 1.785 -0.70300001 5
3.473 1.848 -0.667 5
3.6099999 1.916 -0.62900001 5
3.0420001 1.641 -0.80599999 7
3.1470001 1.689 -0.77399999 6
3.256 1.739 -0.741 7
3.3529999 1.784 -0.70099998 4
3.4860001 1.848 -0.66600001 6
3.6210001 1.914 -0.62699997 5
3.059 1.642 -0.80699998 6
3.158 1.686 -0.773 7
3.2449999 1.725 -0.73400003 6
3.369 1.784 -0.69999999 6
3.4960001 1.845 -0.66299999 6
3.6329999 1.9119999 -0.625 5
3.0610001 1.635 -0.80299997 6
3.164 1.681 -0.76999998 6
3.2539999 1.721 -0.73199999 6
3.368 1.774 -0.69599998 6
3.5009999 1.8380001 -0.66000003 6
3.6630001 1.918 -0.625 4
3.069 1.6289999 -0.801 7
3.1489999 1.663 -0.76200002 6
3.25 1.709 -0.727 6
3.3770001 1.768 -0.69300002 6
3.506 1.83 -0.65700001 4
3.6500001 1.9 -0.61900002 4
3.0739999 1.6210001 -0.79799998 7
3.158 1.6569999 -0.75999999 6
3.2609999 1.7029999 -0.72500002 6
3.378 1.758 -0.68900001 5
3.5139999 1.822 -0.65399998 6
3.6530001 1.8890001 -0.61500001 5
3.0810001 1.613 -0.79500002 7
3.175 1.654 -0.75999999 6
3.299 1.711 -0.72899997 7
3.3970001 1.755 -0.68900001 6
3.5239999 1.8150001 -0.65100002 5
3.665 1.882 -0.61199999 6
3.0869999 1.604 -0.792 6
3.165 1.637 -0.75300002 5
3.2939999 1.696 -0.72299999 6
3.405 1.7460001 -0.68599999 6
3.5309999 1.8049999 -0.648 5
3.6700001 1.8710001 -0.60900003 5
3.0910001 1.5930001 -0.78899997 7
3.164 1.622 -0.74800003 5
3.319 1.6950001 -0.72399998 7
3.4330001 1.7460001 -0.68699998 7
3.5450001 1.798 -0.64600003 5
3.6919999 1.867 -0.60799998 7
3.089 1.5779999 -0.78399998 5
3.1889999 1.6210001 -0.75 6
3.2969999 1.669 -0.71499997 6
3.431 1.73 -0.68199998 6
0 0 0 50
3.691 1.85 -0.60299999 6
3.109 1.574 -0.78500003 7
3.2079999 1.615 -0.75 6
3.3139999 1.6619999 -0.71399999 6
3.431 1.714 -0.67799997 6
3.5650001 1.775 -0.64099997 6
3.701 1.8380001 -0.60000002 6
3.119 1.563 -0.78299999 6
3.1860001 1.5880001 -0.741 5
3.312 1.6440001 -0.70999998 6
3.437 1.7 -0.67500001 6
3.576 1.763 -0.639 6
3.7019999 1.821 -0.59600002 6
3.128 1.55 -0.77999997 6
3.201 1.579 -0.74000001 5
3.3169999 1.6289999 -0.70599997 6
3.438 1.683 -0.671 5
3.573 1.743 -0.634 5
3.714 1.807 -0.59399998 6
3.135 1.5369999 -0.778 6
3.234 1.5779999 -0.74299997 6
3.355 1.63 -0.70999998 7
3.4549999 1.6720001 -0.66900003 6
3.5880001 1.732 -0.63200003 6
3.7279999 1.794 -0.59200001 7
3.1389999 1.521 -0.77499998 6
3.243 1.564 -0.741 6
3.3429999 1.605 -0.70300001 6
3.464 1.6569999 -0.667 6
3.5869999 1.711 -0.62800002 5
3.737 1.778 -0.58899999 7
3.1440001 1.505 -0.77200001 6
3.2460001 1.546 -0.73699999 6
3.3410001 1.585 -0.699 6
3.4660001 1.638 -0.66299999 6
3.605 1.699 -0.62699997 6
3.7379999 1.757 -0.58499998 6
3.148 1.488 -0.76800001 6
3.2579999 1.533 -0.736 7
3.3610001 1.574 -0.699 6
3.4760001 1.622 -0.66100001 6
3.6010001 1.676 -0.62199998 6
3.747 1.739 -0.583 6
3.1530001 1.471 -0.76599997 7
3.2620001 1.5140001 -0.73299998 7
3.3399999 1.544 -0.69099998 5
0 0 0 50
3.618 1.661 -0.62099999 6
3.7550001 1.72 -0.57999998 6
3.1600001 1.454 -0.76300001 6
3.2639999 1.494 -0.72899997 7
3.3529999 1.528 -0.68900001 5
3.506 1.592 -0.65899998 7
3.645 1.65 -0.62199998 7
3.7590001 1.698 -0.57700002 7
3.161 1.433 -0.75999999 8
3.2750001 1.478 -0.72799999 7
3.3829999 1.52 -0.69199997 6
3.5109999 1.572 -0.65600002 7
3.6500001 1.6289999 -0.61900002 7
3.773 1.6799999 -0.57499999 7
3.171 1.416 -0.75800002 6
3.2690001 1.4529999 -0.72299999 6
3.3699999 1.492 -0.685 6
3.4879999 1.539 -0.648 6
3.6259999 1.595 -0.611 6
3.7750001 1.656 -0.57200003 7
3.1760001 1.397 -0.75599998 6
3.2739999 1.433 -0.72000003 6
3.4070001 1.485 -0.68900001 7
3.5280001 1.5319999 -0.65200001 7
3.6440001 1.5779999 -0.611 6
3.802 1.642 -0.57300001 7
3.1730001 1.373 -0.75099999 6
3.2839999 1.414 -0.71899998 6
3.415 1.465 -0.68699998 7
3.536 1.511 -0.64999998 7
3.6600001 1.559 -0.61000001 7
3.7969999 1.613 -0.56800002 7
3.1919999 1.359 -0.75300002 6
3.2869999 1.393 -0.71600002 6
3.4130001 1.4400001 -0.68400002 7
3.52 1.48 -0.64399999 6
3.6589999 1.533 -0.60699999 6
3.7909999 1.584 -0.56400001 7
3.1889999 1.334 -0.74800003 6
3.2920001 1.3710001 -0.71399999 6
3.392 1.4069999 -0.676 5
3.5280001 1.457 -0.64200002 6
3.6559999 1.505 -0.60299999 6
3.8039999 1.562 -0.56300002 7
3.188 1.3099999 -0.745 6
3.2920001 1.346 -0.71100003 6
3.4219999 1.3940001 -0.67900002 6
3.5369999 1.4349999 -0.64099997 6
3.677 1.487 -0.60399997 6
3.8199999 1.541 -0.56300002 7
3.1989999 1.291 -0.74400002 6
3.303 1.326 -0.70999998 6
3.431 1.3710001 -0.67799997 7
3.5510001 1.414 -0.64099997 7
3.6700001 1.457 -0.60000002 6
3.8239999 1.5140001 -0.56 7
3.201 1.267 -0.74199998 6
3.303 1.301 -0.70700002 6
3.434 1.347 -0.676 7
3.5409999 1.3839999 -0.63599998 6
3.658 1.425 -0.59500003 5
3.8329999 1.488 -0.55900002 9
3.204 1.243 -0.74000001 7
3.3050001 1.276 -0.70499998 6
3.4349999 1.321 -0.67299998 7
3.5599999 1.364 -0.63700002 7
3.6989999 1.4119999 -0.59899998 7
3.8110001 1.451 -0.55400002 7
3.1989999 1.217 -0.736 6
3.313 1.2539999 -0.704 6
3.4349999 1.294 -0.671 7
3.559 1.336 -0.634 7
0 0 0 50
3.832 1.4299999 -0.55400002 8
3.21 1.1950001 -0.736 5
3.3169999 1.229 -0.70200002 6
3.4430001 1.27 -0.67000002 7
3.523 1.295 -0.625 5
3.6900001 1.352 -0.59299999 7
3.836 1.401 -0.55299997 8
3.2130001 1.171 -0.73400003 6
3.3139999 1.202 -0.69999999 6
3.441 1.242 -0.667 6
3.5710001 1.285 -0.63200003 6
3.6900001 1.323 -0.59100002 6
3.8340001 1.37 -0.55000001 8
3.217 1.147 -0.73299998 6
3.323 1.179 -0.699 10
3.4449999 1.217 -0.66600001 7
3.5710001 1.256 -0.63 6
3.698 1.296 -0.58999997 7
3.8329999 1.34 -0.54799998 8
3.211 1.119 -0.72899997 7
3.3169999 1.15 -0.69599998 5
3.444 1.189 -0.66399997 7
3.553 1.221 -0.62400001 6
3.7019999 1.268 -0.58899999 7
3.8380001 1.3099999 -0.54699999 8
3.2219999 1.096 -0.72899997 6
3.322 1.125 -0.69499999 6
3.4460001 1.161 -0.662 6
3.572 1.199 -0.62599999 7
0 0 0 0
3.8329999 1.278 -0.54500002 8
3.2130001 1.067 -0.72500002 7
3.3239999 1.098 -0.69300002 6
3.438 1.131 -0.65899998 6
3.5699999 1.169 -0.62400001 7
3.7079999 1.21 -0.58700001 7
3.8369999 1.248 -0.54400003 7
3.217 1.0420001 -0.72399998 5
3.3280001 1.072 -0.69199997 6
3.448 1.1059999 -0.65899998 6
3.5480001 1.133 -0.61900002 5
3.7019999 1.177 -0.58399999 6
3.848 1.22 -0.54400003 8
3.22 1.016 -0.72299999 6
3.3310001 1.046 -0.69099998 6
3.4489999 1.077 -0.65799999 6
3.562 1.108 -0.62 6
3.6989999 1.146 -0.583 7
3.8369999 1.1849999 -0.542 7
3.223 0.99000001 -0.722 5
3.322 1.015 -0.68800002 7
3.447 1.048 -0.65600002 6
3.5710001 1.081 -0.62 6
0 0 0 0
3.839 1.153 -0.54100001 8
3.2219999 0.963 -0.72100002 5
3.3239999 0.98799998 -0.68699998 6
3.4489999 1.02 -0.65499997 6
3.5710001 1.051 -0.61900002 7
3.701 1.085 -0.57999998 7
3.839 1.1210001 -0.54000002 8
3.2219999 0.93599999 -0.71899998 6
3.3269999 0.96100003 -0.68599999 6
3.451 0.99199998 -0.65399998 6
3.562 1.0190001 -0.616 7
3.694 1.052 -0.57800001 7
3.839 1.09 -0.53899997 8
3.2290001 0.91100001 -0.71899998 5
3.3199999 0.93199998 -0.68400002 7
3.4460001 0.96200001 -0.65200001 6
3.5669999 0.991 -0.616 6
3.697 1.022 -0.57800001 7
3.842 1.058 -0.53799999 6
3.22 0.88200003 -0.71600002 5
3.3210001 0.90399998 -0.68300003 5
3.451 0.93400002 -0.65200001 6
3.5669999 0.96100003 -0.61500001 6
3.6900001 0.98900002 -0.57599998 6
3.8329999 1.024 -0.53600001 7
3.223 0.85500002 -0.71600002 5
3.3239999 0.87699997 -0.68199998 5
3.448 0.90499997 -0.65100002 6
3.563 0.93000001 -0.61400002 6
3.6670001 0.95300001 -0.57200003 6
3.8280001 0.99000001 -0.53500003 7
3.2179999 0.82700002 -0.71399999 6
3.3199999 0.84799999 -0.68099999 5
3.4430001 0.87400001 -0.64899999 6
3.556 0.898 -0.61199999 6
3.687 0.926 -0.574 6
3.825 0.95700002 -0.53399998 7
3.2160001 0.79900002 -0.71200001 6
3.3180001 0.81900001 -0.67900002 5
3.4360001 0.84299999 -0.64700001 6
3.5669999 0.87 -0.61299998 5
3.6889999 0.89600003 -0.574 6
3.823 0.92400002 -0.53399998 8
3.2079999 0.76899999 -0.70999998 6
3.3210001 0.792 -0.67900002 6
3.4449999 0.81599998 -0.648 5
3.5510001 0.83600003 -0.61000001 6
3.697 0.866 -0.57499999 6
3.825 0.89200002 -0.53299999 6
3.2190001 0.745 -0.71100003 6
3.3110001 0.76099998 -0.67699999 6
3.4360001 0.78500003 -0.64499998 6
3.5480001 0.80599999 -0.60900003 6
3.6860001 0.833 -0.57300001 6
3.8239999 0.85900003 -0.53299999 7
3.2149999 0.71700001 -0.70999998 5
3.312 0.73299998 -0.676 6
3.444 0.75800002 -0.64700001 5
3.5510001 0.77600002 -0.60900003 6
3.671 0.79799998 -0.56999999 7
3.8199999 0.82599998 -0.53200001 7
3.22 0.69 -0.70999998 5
3.3199999 0.70700002 -0.67699999 6
3.4449999 0.72799999 -0.64600003 5
3.552 0.74599999 -0.60799998 6
3.6789999 0.76800001 -0.57099998 6
3.8110001 0.79100001 -0.53100002 8
3.21 0.66000003 -0.708 5
3.312 0.676 -0.67500001 5
3.437 0.69700003 -0.64399999 5
3.5409999 0.713 -0.60600001 6
3.6819999 0.73699999 -0.57099998 6
3.8039999 0.75700003 -0.52999997 8
3.2060001 0.63200003 -0.70599997 5
3.309 0.64700001 -0.67400002 5
3.4260001 0.66500002 -0.64200002 6
3.5420001 0.68300003 -0.60600001 6
0 0 0 50
3.8 0.72399998 -0.52899998 7
3.2019999 0.60399997 -0.70499998 6
3.3139999 0.62 -0.67500001 5
3.431 0.63700002 -0.64300001 5
3.539 0.65200001 -0.60600001 6
3.6700001 0.671 -0.56900001 6
3.806 0.69199997 -0.52999997 7
3.2060001 0.57700002 -0.70599997 5
3.3180001 0.59200001 -0.67500001 4
3.4349999 0.60799998 -0.64300001 5
3.533 0.62 -0.60399997 5
3.668 0.639 -0.56900001 6
3.7969999 0.65700001 -0.52899998 8
3.211 0.55000001 -0.70599997 5
3.3139999 0.56300002 -0.67400002 4
3.418 0.57499999 -0.63999999 6
3.53 0.58899999 -0.60399997 6
3.6670001 0.60799998 -0.56900001 6
3.79 0.62300003 -0.528 7
3.201 0.52100003 -0.704 5
3.3069999 0.53299999 -0.67299998 5
3.4159999 0.546 -0.639 6
3.5339999 0.56 -0.60399997 6
3.6630001 0.57599998 -0.56800002 6
3.7869999 0.58999997 -0.528 7
3.1989999 0.49200001 -0.70300001 5
3.2980001 0.50300002 -0.671 5
3.414 0.51599997 -0.639 6
3.529 0.528 -0.60399997 5
3.6500001 0.542 -0.56599998 6
3.78 0.55599999 -0.52700001 9
0 0 0 50
3.299 0.47400001 -0.671 5
3.402 0.484 -0.63599998 7
3.5190001 0.49599999 -0.602 6
3.648 0.50999999 -0.56599998 6
3.786 0.52399999 -0.528 10
3.198 0.43700001 -0.70200002 5
3.3 0.44600001 -0.671 5
3.405 0.45500001 -0.63700002 2
3.517 0.46599999 -0.60100001 6
3.6459999 0.47799999 -0.56599998 6
3.7809999 0.491 -0.52700001 7
3.1919999 0.40900001 -0.70099998 5
3.289 0.41600001 -0.66900003 5
3.395 0.42500001 -0.63499999 6
3.5139999 0.435 -0.60100001 6
3.641 0.44499999 -0.565 6
3.7709999 0.45699999 -0.52600002 8
3.177 0.37900001 -0.69700003 6
3.279 0.38600001 -0.66600001 4
3.3929999 0.39500001 -0.63499999 5
3.5120001 0.40400001 -0.60100001 6
3.6400001 0.414 -0.565 7
3.7609999 0.42300001 -0.52499998 7
3.1789999 0.352 -0.69800001 4
3.2780001 0.35800001 -0.66600001 4
3.3940001 0.366 -0.63499999 5
3.5109999 0.373 -0.60000002 6
3.6300001 0.38100001 -0.56300002 6
3.7639999 0.38999999 -0.52499998 8
3.181 0.324 -0.69800001 5
3.279 0.33000001 -0.66600001 4
3.4119999 0.338 -0.63800001 4
3.5050001 0.34299999 -0.60000002 5
3.6270001 0.34999999 -0.56300002 5
3.7620001 0.35800001 -0.52499998 6
3.1860001 0.29699999 -0.699 4
3.283 0.301 -0.667 4
3.4000001 0.30700001 -0.63599998 5
3.51 0.31200001 -0.60000002 5
3.6259999 0.31799999 -0.56300002 5
0 0 0 50
3.1849999 0.26899999 -0.699 4
3.28 0.273 -0.66600001 4
3.4059999 0.278 -0.63700002 4
3.503 0.28200001 -0.59899998 5
3.631 0.287 -0.56400001 5
3.7520001 0.29100001 -0.52399999 6
3.1789999 0.241 -0.69800001 5
3.283 0.244 -0.667 4
3.3889999 0.24699999 -0.634 4
3.474 0.249 -0.59399998 4
3.631 0.255 -0.56400001 5
3.75 0.25799999 -0.52399999 6
3.1789999 0.214 -0.69700003 5
3.277 0.21600001 -0.66600001 4
3.3959999 0.21799999 -0.63499999 5
3.5050001 0.221 -0.60000002 5
3.622 0.223 -0.56300002 5
3.747 0.226 -0.52399999 6
3.178 0.186 -0.69700003 4
3.273 0.18700001 -0.66500002 5
3.385 0.189 -0.63300002 5
3.494 0.19 -0.59799999 5
3.6210001 0.192 -0.56300002 5
3.7460001 0.193 -0.52399999 6
3.174 0.15800001 -0.69599998 4
3.279 0.15899999 -0.66600001 4
3.3829999 0.15899999 -0.63300002 5
3.497 0.15899999 -0.59799999 5
3.6070001 0.16 -0.56 5
3.7409999 0.16 -0.523 5
3.1700001 0.131 -0.69599998 5
3.2750001 0.13 -0.66500002 4
3.385 0.13 -0.63300002 5
3.4960001 0.12899999 -0.59799999 5
3.619 0.12800001 -0.56199998 6
3.7379999 0.127 -0.523 6
3.1689999 0.103 -0.69499999 4
3.267 0.101 -0.66399997 4
3.385 0.1 -0.63300002 4
3.49 0.097999997 -0.597 5
0 0 0 50
3.7360001 0.094999999 -0.52200001 8
3.1689999 0.075000003 -0.69499999 5
3.2709999 0.072999999 -0.66399997 4
3.381 0.071000002 -0.63200003 4
3.494 0.068000004 -0.59799999 5
3.6110001 0.064999998 -0.56099999 5
3.7420001 0.061999999 -0.523 6
3.165 0.048 -0.69400001 4
3.2690001 0.045000002 -0.66399997 5
3.3399999 0.041000001 -0.625 4
3.484 0.037 -0.59600002 5
3.6059999 0.034000002 -0.56 5
3.727 0.028999999 -0.52100003 7
3.1659999 0.02 -0.69499999 4
3.2620001 0.016000001 -0.66299999 5
3.3740001 0.012 -0.63099998 5
3.483 0.0070000002 -0.59600002 5
3.6029999 0.0020000001 -0.56 6
3.7320001 -0.003 -0.52200001 7
3.164 -0.0070000002 -0.69400001 5
3.2609999 -0.012 -0.662 4
3.381 -0.017000001 -0.63200003 4
0 0 0 50
3.6059999 -0.028999999 -0.56 5
3.7290001 -0.035 -0.52100003 6
3.1630001 -0.035 -0.69400001 5
3.257 -0.039999999 -0.66100001 4
3.3729999 -0.046999998 -0.63099998 5
3.483 -0.052999999 -0.59600002 5
3.6010001 -0.059999999 -0.55900002 6
3.72 -0.068000004 -0.51999998 6
3.154 -0.061999999 -0.69199997 5
3.2509999 -0.068999998 -0.66000003 4
3.365 -0.075999998 -0.62900001 5
3.4820001 -0.083999999 -0.59600002 5
3.596 -0.092 -0.55900002 6
3.7190001 -0.101 -0.51999998 6
3.1589999 -0.090000004 -0.69300002 5
3.2460001 -0.097000003 -0.65899998 5
3.3640001 -0.106 -0.62900001 5
3.4719999 -0.114 -0.59399998 5
3.586 -0.123 -0.55699998 6
3.7190001 -0.133 -0.51899999 7
3.155 -0.118 -0.69199997 5
3.2479999 -0.126 -0.65899998 4
3.3670001 -0.13500001 -0.62900001 4
3.4679999 -0.14399999 -0.59299999 5
3.5929999 -0.155 -0.55800003 5
3.72 -0.16599999 -0.51899999 6
0 0 0 50
3.2479999 -0.154 -0.65899998 4
3.358 -0.16500001 -0.62800002 5
3.471 -0.175 -0.59299999 6
3.5829999 -0.186 -0.55599999 6
3.704 -0.198 -0.51700002 6
3.151 -0.17299999 -0.69099998 5
3.2490001 -0.183 -0.65899998 4
3.349 -0.193 -0.62599999 5
3.47 -0.206 -0.59299999 4
3.5929999 -0.21799999 -0.55699998 5
3.7079999 -0.23100001 -0.51700002 6
3.145 -0.2 -0.68900001 4
3.2360001 -0.211 -0.65700001 4
3.3440001 -0.222 -0.625 5
3.4590001 -0.235 -0.59100002 5
3.576 -0.249 -0.55500001 6
3.711 -0.264 -0.51700002 6
3.1440001 -0.228 -0.68900001 6
3.243 -0.23899999 -0.65799999 4
3.339 -0.25099999 -0.62400001 5
3.457 -0.26499999 -0.59100002 5
3.573 -0.28 -0.55400002 6
0 0 0 50
3.1400001 -0.255 -0.68800002 6
3.2390001 -0.26699999 -0.65700001 4
3.339 -0.28099999 -0.62300003 5
3.4519999 -0.29499999 -0.58899999 5
3.563 -0.31 -0.55199999 7
3.6919999 -0.32699999 -0.514 7
3.138 -0.28200001 -0.68699998 6
3.2360001 -0.29499999 -0.65600002 4
3.335 -0.30899999 -0.62199998 5
3.4449999 -0.32499999 -0.588 5
3.5650001 -0.34200001 -0.55199999 6
3.687 -0.359 -0.51300001 6
3.1340001 -0.30899999 -0.68699998 6
3.23 -0.32300001 -0.65499997 5
3.3180001 -0.33700001 -0.61900002 6
3.4449999 -0.35499999 -0.588 5
3.5639999 -0.373 -0.551 6
3.6919999 -0.39199999 -0.51300001 8
3.1359999 -0.33700001 -0.68699998 6
3.2190001 -0.34999999 -0.653 4
3.3310001 -0.36700001 -0.62099999 5
3.4419999 -0.38499999 -0.58700001 5
3.572 -0.405 -0.55199999 5
3.6900001 -0.42399999 -0.51300001 7
0 0 0 50
3.2290001 -0.38 -0.65399998 4
3.3210001 -0.396 -0.61900002 8
3.4449999 -0.41600001 -0.58700001 5
3.5650001 -0.43599999 -0.551 5
3.6900001 -0.45699999 -0.51200002 6
3.1300001 -0.391 -0.685 5
3.223 -0.40799999 -0.653 4
3.3180001 -0.42500001 -0.61799997 8
3.448 -0.447 -0.58700001 5
3.5569999 -0.46700001 -0.54900002 5
3.6849999 -0.48899999 -0.51099998 7
3.125 -0.41800001 -0.68400002 6
3.21 -0.435 -0.64999998 8
3.3329999 -0.456 -0.62099999 5
3.45 -0.477 -0.58700001 5
3.556 -0.498 -0.54900002 5
3.6889999 -0.523 -0.51099998 7
3.122 -0.44600001 -0.68300003 6
3.224 -0.465 -0.653 4
3.332 -0.486 -0.62099999 5
0 0 0 50
3.5580001 -0.52999997 -0.54900002 6
3.6819999 -0.55500001 -0.50999999 6
3.1240001 -0.47400001 -0.68400002 6
3.2160001 -0.493 -0.65100002 4
3.332 -0.51499999 -0.62 4
3.438 -0.537 -0.58499998 5
3.5599999 -0.56199998 -0.54799998 5
3.691 -0.58899999 -0.50999999 7
3.1170001 -0.50099999 -0.68199998 6
3.2149999 -0.52100003 -0.65100002 4
3.323 -0.54400003 -0.61799997 5
3.4430001 -0.56900001 -0.58499998 5
3.5550001 -0.59299999 -0.54699999 5
3.674 -0.61900002 -0.50800002 8
3.1199999 -0.52899998 -0.68300003 6
3.217 -0.55000001 -0.65100002 4
3.325 -0.574 -0.61799997 5
3.4349999 -0.59799999 -0.583 5
3.563 -0.62599999 -0.54799998 5
3.681 -0.653 -0.50800002 7
3.1159999 -0.55599999 -0.68199998 4
0 0 0 50
3.319 -0.602 -0.61699998 5
3.4360001 -0.62900001 -0.583 5
3.552 -0.65600002 -0.546 6
3.6789999 -0.68599999 -0.50700003 9
3.1210001 -0.58499998 -0.68300003 5
3.2060001 -0.60500002 -0.648 4
3.3280001 -0.63300002 -0.61799997 5
3.4300001 -0.65799999 -0.58200002 5
3.546 -0.68599999 -0.54500002 6
3.6789999 -0.71899998 -0.50599998 8
3.112 -0.611 -0.68099999 5
3.2090001 -0.634 -0.64899999 5
3.323 -0.662 -0.61699998 5
3.4319999 -0.68900001 -0.58200002 6
3.556 -0.72000003 -0.546 7
3.674 -0.75099999 -0.505 11
0 0 0 50
3.2060001 -0.66299999 -0.648 5
3.3099999 -0.68900001 -0.61500001 6
3.4289999 -0.71899998 -0.58099997 6
3.5450001 -0.75 -0.54400003 7
3.6689999 -0.78200001 -0.50400001 9
3.109 -0.66600001 -0.68000001 6
3.2030001 -0.69 -0.64700001 6
3.3050001 -0.71700001 -0.61400002 6
3.4300001 -0.75 -0.58099997 7
3.5510001 -0.78299999 -0.54400003 6
3.6670001 -0.815 -0.50300002 8
3.105 -0.69300002 -0.67900002 4
3.2019999 -0.71899998 -0.64700001 5
3.3210001 -0.75099999 -0.616 5
3.4300001 -0.78100002 -0.58099997 6
3.5420001 -0.81199998 -0.542 8
3.6600001 -0.84600002 -0.50199997 8
3.1029999 -0.72000003 -0.67900002 5
3.1949999 -0.74599999 -0.64600003 4
3.3099999 -0.778 -0.61400002 6
3.4230001 -0.81 -0.579 7
0 0 0 50
3.6659999 -0.88099998 -0.50199997 7
3.1040001 -0.74800003 -0.67900002 5
3.1989999 -0.77600002 -0.64600003 5
3.3050001 -0.80699998 -0.61299998 5
3.4230001 -0.84100002 -0.579 6
3.539 -0.87599999 -0.54100001 7
3.6700001 -0.91500002 -0.50199997 8
3.1059999 -0.77700001 -0.68000001 6
3.191 -0.80299997 -0.64499998 6
3.316 -0.83899999 -0.61500001 5
3.425 -0.87300003 -0.579 6
3.5369999 -0.90700001 -0.54100001 8
3.6619999 -0.94599998 -0.50099999 10
3.099 -0.80299997 -0.67799997 5
3.1960001 -0.833 -0.64600003 5
3.299 -0.86500001 -0.61199999 6
3.4200001 -0.90200001 -0.57800001 7
3.536 -0.93900001 -0.54000002 6
3.6589999 -0.97799999 -0.5 10
3.095 -0.82999998 -0.67799997 6
3.198 -0.86199999 -0.64600003 5
3.313 -0.898 -0.61500001 5
3.4089999 -0.93000001 -0.57599998 5
3.5280001 -0.96899998 -0.53899997 9
0 0 0 50
3.0899999 -0.85699999 -0.67699999 6
3.188 -0.88800001 -0.64399999 5
3.302 -0.92500001 -0.61299998 6
3.418 -0.963 -0.57800001 6
3.529 -1.001 -0.53799999 9
3.658 -1.045 -0.49900001 9
3.092 -0.88499999 -0.67699999 5
3.181 -0.91500002 -0.64300001 7
3.3 -0.954 -0.61199999 6
3.4170001 -0.99400002 -0.57700002 6
