# .PCD v0.7 - Point Cloud Data file format
VERSION 0.7
FIELDS x y z intensity
SIZE 4 4 4 4
TYPE F F F F
COUNT 1 1 1 1
WIDTH 1711
HEIGHT 1
VIEWPOINT 0 0 0 1 0 0 0
POINTS 1711
DATA ascii
7.6550002 6.4819999 0.389 1
8.4110003 7.1259999 0.60100001 1
0 0 0 50
10.052 8.5459995 1.138 13
10.021 8.5450001 1.346 12
7.0250001 5.9569998 0.21799999 1
7.6820002 6.5120001 0.39700001 1
8.4560003 7.1719999 0.611 1
9.4659996 8.04 0.88099998 2
10.042 8.5480003 1.145 14
10 8.5369997 1.351 11
7.0580001 5.987 0.22499999 1
7.7020001 6.5320001 0.40400001 1
8.4689999 7.1869998 0.61900002 1
0 0 0 50
10.035 8.5459995 1.152 13
10 8.5419998 1.359 10
7.0799999 6.0040002 0.23100001 1
7.724 6.5489998 0.41 1
8.5200005 7.2290001 0.62900001 1
9.5249996 8.0930004 0.90100002 1
10.038 8.5480003 1.16 15
9.9919996 8.5349998 1.3660001 8
7.1040001 6.02 0.237 1
7.7610002 6.5749998 0.41800001 1
8.5679998 7.2649999 0.639 1
0 0 0 50
10.047 8.5500002 1.169 14
10.012 8.5469999 1.376 7
7.119 6.0240002 0.242 1
7.7680001 6.573 0.42399999 1
8.6040001 7.2849998 0.648 1
9.6379995 8.1730003 0.926 1
10.047 8.54 1.176 15
9.9949999 8.5220003 1.381 5
7.1389999 6.0289998 0.248 1
0 0 0 50
8.6079998 7.2750001 0.65399998 1
9.6359997 8.1560001 0.93199998 1
10.058 8.533 1.184 15
10.014 8.5229998 1.39 4
7.1630001 6.033 0.25299999 1
7.803 6.572 0.43599999 1
8.6420002 7.2849998 0.662 1
9.6639996 8.1599998 0.94099998 1
10.081 8.5310001 1.192 15
10.044 8.5270004 1.4 4
7.1680002 6.0180001 0.25799999 1
7.8080001 6.5560002 0.44100001 1
0 0 0 50
9.6990004 8.1639996 0.94999999 1
10.095 8.5170002 1.199 15
10.042 8.5 1.405 4
7.1750002 6.0009999 0.26300001 1
7.835 6.5539999 0.44800001 1
8.6420002 7.2360001 0.671 1
9.7309999 8.1599998 0.958 1
10.118 8.5059996 1.207 15
10.075 8.4969997 1.414 4
7.198 5.9949999 0.26699999 1
7.8639998 6.5500002 0.45300001 1
0 0 0 50
9.7460003 8.1379995 0.963 1
10.145 8.493 1.215 16
10.098 8.4809999 1.421 4
7.2119999 5.9770002 0.27200001 1
7.8709998 6.5250001 0.45699999 1
8.6920004 7.211 0.68400002 1
9.7530003 8.1049995 0.96899998 1
0 0 0 50
10.14 8.4750004 1.4299999 4
7.217 5.9489999 0.27500001 1
7.888 6.5029998 0.461 1
8.691 7.171 0.68599999 1
9.7229996 8.0369997 0.96799999 1
10.211 8.4610004 1.229 14
10.149 8.4370003 1.434 4
7.2259998 5.921 0.278 1
7.8899999 6.4660001 0.465 1
8.7030001 7.1389999 0.69 1
0 0 0 50
10.243 8.4370003 1.235 14
10.19 8.4209995 1.442 6
7.2049999 5.8660002 0.28 1
7.8909998 6.4260001 0.46700001 1
8.717 7.105 0.69400001 1
9.7969999 7.9980001 0.98100001 1
5.1690001 4.23 0.62400001 1
5.1269999 4.21 0.72600001 24
7.2290001 5.8439999 0.28400001 1
7.8969998 6.3850002 0.47 1
8.7040005 7.0440001 0.69499999 1
5.1729999 4.1929998 0.51800001 10
0 0 0 50
5.0929999 4.152 0.72100002 82
7.2140002 5.7870002 0.285 1
7.8860002 6.3270001 0.47099999 0
5.2010002 4.177 0.41499999 27
5.152 4.145 0.51700002 79
5.1300001 4.138 0.62 81
5.1139998 4.138 0.72399998 83
0 0 0 50
5.2189999 4.1539998 0.31200001 29
5.1900001 4.1350002 0.41499999 86
5.1739998 4.1290002 0.51899999 83
5.1570001 4.1259999 0.62300003 84
5.138 4.1240001 0.727 90
5.2480001 4.1409998 0.20900001 57
5.23 4.1269999 0.31299999 78
5.2160001 4.1199999 0.41800001 88
5.2030001 4.1170001 0.52200001 84
5.184 4.112 0.62599999 85
5.1669998 4.112 0.73000002 85
5.2709999 4.1209998 0.211 84
5.2600002 4.1139998 0.315 79
5.2420001 4.1030002 0.419 90
0 0 0 50
5.211 4.0960002 0.62800002 85
5.1950002 4.0970001 0.73299998 92
5.3000002 4.105 0.212 85
5.2859998 4.0939999 0.317 80
5.27 4.086 0.421 92
5.256 4.0819998 0.52600002 93
5.2410002 4.0799999 0.63099998 105
5.2080002 4.0679998 0.73400003 44
5.3309999 4.0869999 0.213 87
5.322 4.0809999 0.31799999 84
0 0 0 50
5.2719998 4.0539999 0.52600002 39
5.2249999 4.027 0.62699997 45
5.1859999 4.0089998 0.72799999 52
5.3600001 4.0669999 0.214 98
5.3260002 4.0430002 0.31799999 41
5.2880001 4.0170002 0.421 45
5.243 3.99 0.52200001 54
5.2129998 3.9760001 0.62400001 59
5.1859999 3.9679999 0.72600001 65
5.3569999 4.0209999 0.213 45
5.3119998 3.987 0.31600001 54
5.2779999 3.9660001 0.41800001 60
5.2389998 3.9430001 0.51899999 66
5.2069998 3.928 0.62099999 68
0 0 0 50
5.3390002 3.9619999 0.212 55
5.3119998 3.9419999 0.315 63
5.2639999 3.911 0.41600001 74
5.237 3.8970001 0.51700002 75
5.2119999 3.8870001 0.61900002 77
5.178 3.8729999 0.71899998 82
5.336 3.9130001 0.211 68
5.3010001 3.8889999 0.31200001 70
5.27 3.869 0.414 82
5.244 3.8559999 0.51499999 81
0 0 0 50
5.191 3.8369999 0.71799999 91
5.3379998 3.868 0.20900001 76
5.3049998 3.845 0.31099999 78
5.2719998 3.8239999 0.412 92
5.2480001 3.812 0.51300001 89
5.217 3.7980001 0.61400002 91
5.1900001 3.789 0.71399999 96
5.3410001 3.822 0.208 85
5.3119998 3.802 0.30899999 83
5.2859998 3.786 0.41100001 102
0 0 0 50
5.23 3.76 0.611 98
5.2059999 3.753 0.71200001 106
5.349 3.779 0.206 90
5.3280001 3.7650001 0.308 88
5.2979999 3.7460001 0.40900001 109
5.2709999 3.733 0.509 97
5.25 3.7260001 0.61000001 106
5.223 3.717 0.70999998 115
5.3610001 3.7379999 0.204 97
0 0 0 50
5.3169999 3.71 0.40700001 112
5.2940001 3.7 0.50800002 101
5.2750001 3.694 0.60900003 89
5.2470002 3.684 0.70899999 93
5.382 3.7019999 0.20299999 83
5.3610001 3.688 0.30399999 80
5.336 3.674 0.405 97
5.3169999 3.665 0.50599998 88
5.2979999 3.6600001 0.60799998 90
0 0 0 50
5.4060001 3.668 0.20100001 84
5.3850002 3.6530001 0.303 78
5.3629999 3.6400001 0.40400001 96
5.3429999 3.632 0.505 88
5.3270001 3.628 0.60600001 92
5.3070002 3.6240001 0.70700002 99
5.4330001 3.6329999 0.199 84
5.4169998 3.622 0.301 79
5.3979998 3.612 0.403 98
5.3769999 3.602 0.50400001 87
5.3569999 3.595 0.60500002 90
0 0 0 50
5.4629998 3.5999999 0.197 82
5.448 3.589 0.29899999 77
5.4289999 3.579 0.40099999 93
5.4159999 3.5739999 0.50300002 84
5.4000001 3.5710001 0.60500002 86
5.381 3.5669999 0.70599997 82
5.5 3.5699999 0.19499999 80
5.494 3.566 0.29800001 77
5.473 3.5539999 0.40000001 86
5.4629998 3.5510001 0.50199997 78
5.4489999 3.5480001 0.60500002 81
5.4310002 3.5450001 0.70700002 78
0 0 0 50
5.5370002 3.539 0.296 73
5.5240002 3.5320001 0.39899999 77
5.5100002 3.527 0.50099999 73
5.5009999 3.527 0.60500002 72
5.487 3.526 0.708 72
5.5960002 3.5209999 0.191 70
5.592 3.5179999 0.29499999 66
5.579 3.5109999 0.398 72
5.5739999 3.5120001 0.50199997 67
5.5650001 3.5120001 0.60600001 65
5.5570002 3.5139999 0.70999998 57
5.6570001 3.503 0.189 61
5.6570001 3.5020001 0.294 59
5.651 3.4990001 0.398 53
5.652 3.503 0.50300002 47
0 0 0 50
5.651 3.5150001 0.71600002 35
5.7389998 3.4949999 0.18799999 51
5.7410002 3.4949999 0.29300001 38
5.7490001 3.5009999 0.40000001 30
5.776 3.5209999 0.50800002 27
5.8740001 3.586 0.62699997 24
6.0170002 3.681 0.755 83
5.848 3.503 0.18700001 28
5.895 3.53 0.296 20
6.1199999 3.6659999 0.41999999 85
6.1069999 3.661 0.53100002 82
6.0929999 3.6570001 0.64300001 83
6.073 3.652 0.755 88
0 0 0 50
6.191 3.645 0.30599999 76
6.1820002 3.6400001 0.41800001 83
6.1680002 3.6340001 0.52999997 84
6.1490002 3.628 0.64200002 84
6.132 3.6240001 0.75400001 87
6.2459998 3.6159999 0.19 13
6.2529998 3.618 0.303 78
6.237 3.609 0.41600001 83
6.223 3.6029999 0.528 85
6.2069998 3.598 0.64099997 89
6.1919999 3.596 0.75400001 83
0 0 0 50
6.316 3.5910001 0.30000001 80
6.2969999 3.5799999 0.414 82
6.2839999 3.5739999 0.52700001 88
6.2729998 3.572 0.64099997 89
6.2550001 3.5669999 0.75300002 82
6.3740001 3.562 0.183 16
6.375 3.5599999 0.29699999 81
6.3639998 3.553 0.41100001 87
6.3499999 3.5469999 0.52499998 86
6.3309999 3.54 0.639 89
6.3189998 3.539 0.75300002 94
6.4250002 3.5250001 0.17900001 12
6.4310002 3.526 0.294 57
6.4219999 3.52 0.40799999 89
6.4130001 3.516 0.523 85
6.3969998 3.5109999 0.63800001 90
6.3769999 3.5050001 0.75199997 89
6.4899998 3.4949999 0.175 10
0 0 0 50
6.4829998 3.4879999 0.40599999 89
6.4720001 3.483 0.52100003 89
6.4580002 3.4790001 0.63599998 90
6.4460001 3.477 0.75099999 93
6.5110002 3.441 0.17 2
6.5450001 3.457 0.28600001 13
6.5469999 3.4560001 0.403 91
6.5370002 3.4519999 0.51899999 89
6.5209999 3.4449999 0.634 92
6.5050001 3.4419999 0.75 93
6.4660001 3.3529999 0.163 2
6.6149998 3.427 0.28299999 14
6.6149998 3.4260001 0.40000001 93
6.6030002 3.4200001 0.51700002 91
6.5869999 3.414 0.63300002 92
0 0 0 50
6.4429998 3.277 0.15700001 1
6.678 3.392 0.28 11
6.6820002 3.392 0.39700001 79
6.6659999 3.385 0.514 78
6.652 3.3789999 0.63099998 77
6.6360002 3.375 0.74800003 76
6.4229999 3.2019999 0.15000001 1
6.7449999 3.359 0.27599999 10
6.7509999 3.3599999 0.39399999 48
6.7379999 3.3529999 0.51200002 76
6.7140002 3.342 0.62900001 77
6.7020001 3.3399999 0.74599999 79
6.4710002 3.1619999 0.146 2
6.8049998 3.3210001 0.27200001 6
6.8239999 3.3280001 0.391 21
6.8049998 3.3180001 0.509 80
6.789 3.3110001 0.62800002 76
0 0 0 50
6.5219998 3.122 0.141 3
6.7839999 3.243 0.264 1
6.875 3.2839999 0.38699999 13
6.8790002 3.2839999 0.50700003 82
6.8629999 3.277 0.62599999 80
6.8449998 3.27 0.745 78
6.4860001 3.04 0.134 2
6.7329998 3.152 0.255 1
6.947 3.2490001 0.384 12
6.9520001 3.25 0.505 81
6.934 3.2409999 0.62400001 82
6.9130001 3.234 0.74299997 81
6.4580002 2.9649999 0.12800001 2
6.7309999 3.085 0.249 1
7.02 3.214 0.38 12
0 0 0 50
7.0079999 3.2060001 0.62199998 81
6.993 3.2 0.74299997 83
6.4429998 2.8940001 0.122 2
6.7620001 3.0320001 0.243 2
7.0910001 3.1760001 0.377 11
7.0939999 3.175 0.49900001 37
7.079 3.168 0.62 82
7.0749998 3.1659999 0.74299997 79
6.4130001 2.8180001 0.115 2
6.8400002 3 0.23999999 3
7.1220002 3.1199999 0.37099999 4
7.158 3.1329999 0.49599999 11
7.1539998 3.131 0.61799997 82
7.1409998 3.1259999 0.741 81
6.322 2.717 0.108 2
6.8449998 2.9360001 0.233 3
7.079 3.0320001 0.36199999 2
7.23 3.0940001 0.493 13
7.2329998 3.0940001 0.61699998 82
7.2189999 3.0869999 0.74000001 80
0 0 0 50
6.8130002 2.8559999 0.226 3
7.0440001 2.948 0.35299999 2
7.3070002 3.0550001 0.49000001 12
7.309 3.0539999 0.61500001 83
7.2979999 3.049 0.73900002 84
6.1139998 2.5090001 0.093999997 1
6.7639999 2.77 0.21799999 3
7.033 2.8759999 0.345 2
7.3870001 3.017 0.48800001 17
7.3889999 3.016 0.61400002 69
7.3730001 3.0079999 0.73799998 78
6.0770001 2.4360001 0.088 1
6.7490001 2.6989999 0.211 3
7.098 2.8340001 0.34200001 3
7.4439998 2.9679999 0.484 7
7.4780002 2.9790001 0.61299998 32
7.4640002 2.9719999 0.73799998 82
6.0349998 2.3610001 0.082999997 1
6.6220002 2.585 0.20100001 2
7.1529999 2.7869999 0.338 3
7.4180002 2.8859999 0.47499999 2
7.54 2.9300001 0.61000001 18
7.5409999 2.9289999 0.73699999 86
6.0079999 2.293 0.077 1
6.4829998 2.4690001 0.191 1
7.1329999 2.71 0.33000001 3
7.3920002 2.8039999 0.46599999 2
7.6230001 2.888 0.60799998 13
7.6300001 2.8889999 0.73699999 84
0 0 0 50
6.3839998 2.3699999 0.183 1
7.1209998 2.638 0.32300001 3
7.3730001 2.7260001 0.45699999 2
7.7090001 2.845 0.60699999 15
7.7150002 2.845 0.73699999 84
5.9510002 2.1589999 0.067000002 3
6.3239999 2.2869999 0.176 1
7.0650001 2.55 0.31400001 3
7.4429998 2.681 0.454 3
7.7909999 2.802 0.60600001 13
7.7989998 2.8010001 0.73699999 50
5.9330001 2.096 0.061999999 2
6.2820001 2.2130001 0.17 1
6.98 2.454 0.30399999 3
7.5089998 2.6340001 0.45199999 4
7.8119998 2.7349999 0.59899998 4
7.8839998 2.757 0.73699999 26
5.8969998 2.029 0.057 4
6.2610002 2.148 0.164 1
6.8109999 2.3299999 0.29100001 2
7.4809999 2.5539999 0.44299999 4
7.77 2.648 0.58899999 2
7.9569998 2.707 0.73500001 14
5.8829999 1.97 0.052999999 3
6.2350001 2.0810001 0.15899999 1
6.6659999 2.2190001 0.27900001 1
7.421 2.464 0.433 3
7.7069998 2.553 0.57700002 2
8.0489998 2.6630001 0.736 15
5.8610001 1.909 0.048999999 3
6.2030001 2.013 0.153 1
6.6300001 2.1459999 0.27200001 1
7.3779998 2.382 0.42399999 3
7.7519999 2.497 0.57300001 3
8.1330004 2.615 0.736 13
5.8410001 1.85 0.044 3
6.1820002 1.951 0.148 1
6.5900002 2.072 0.26499999 1
7.2740002 2.2809999 0.412 2
7.8429999 2.454 0.57300001 3
8.2200003 2.5669999 0.736 9
5.8099999 1.7869999 0.039999999 3
6.151 1.885 0.14300001 1
6.5489998 2 0.259 1
7.105 2.1630001 0.39700001 2
7.881 2.3940001 0.56900001 3
0 0 0 50
5.7930002 1.73 0.035999998 3
6.1240001 1.822 0.138 3
6.5229998 1.934 0.25299999 1
6.9860001 2.0639999 0.38499999 1
7.9070001 2.329 0.565 3
8.1520004 2.395 0.71600002 2
5.777 1.673 0.033 3
6.1090002 1.762 0.134 2
6.4970002 1.867 0.248 1
6.9499998 1.99 0.37799999 1
7.8720002 2.247 0.55599999 3
8.1479998 2.3199999 0.70899999 3
5.75 1.614 0.028999999 4
6.092 1.702 0.12899999 3
6.474 1.802 0.242 1
6.8959999 1.913 0.37 1
7.7639999 2.1459999 0.54299998 3
8.2620001 2.277 0.71200001 3
5.7379999 1.5599999 0.026000001 4
6.0700002 1.642 0.125 3
6.4419999 1.7359999 0.237 1
6.8709998 1.844 0.36399999 1
7.6560001 2.0469999 0.52999997 2
8.2910004 2.21 0.70899999 4
5.7140002 1.503 0.023 3
6.0510001 1.584 0.121 2
6.4169998 1.6720001 0.23199999 1
6.8369999 1.774 0.35800001 1
7.368 1.905 0.505 1
8.3039999 2.1389999 0.70300001 4
5.6950002 1.448 0.02 4
6.0240002 1.524 0.117 3
6.3940001 1.609 0.228 2
6.8249998 1.71 0.35299999 1
7.2940001 1.8200001 0.495 1
8.3129997 2.0669999 0.699 4
5.6849999 1.396 0.017000001 4
6.0110002 1.4680001 0.114 3
6.3800001 1.55 0.223 3
6.7839999 1.64 0.347 1
7.2729998 1.751 0.48899999 1
8.2629995 1.982 0.68900001 3
0 0 0 50
5.9879999 1.41 0.111 3
6.3460002 1.4859999 0.219 1
6.7740002 1.579 0.34200001 1
7.2360001 1.679 0.48199999 1
6.454 1.4910001 0.53399998 0
5.658 1.291 0.012 4
5.974 1.355 0.107 3
6.3299999 1.428 0.215 3
6.6630001 1.4960001 0.333 0
6.4720001 1.4450001 0.428 1
6.4229999 1.427 0.528 0
5.631 1.237 0.0089999996 4
5.9559999 1.3 0.105 4
6.3179998 1.3710001 0.212 3
6.5190001 1.4069999 0.32300001 0
6.4489999 1.3839999 0.42300001 3
6.4099998 1.369 0.523 4
5.6230001 1.188 0.0070000002 4
5.947 1.248 0.102 3
6.2989998 1.313 0.208 4
6.5320001 1.353 0.32100001 0
6.4559999 1.33 0.41999999 6
6.4169998 1.314 0.52100003 3
5.6079998 1.137 0.0049999999 4
5.9349999 1.1950001 0.1 3
6.2870002 1.257 0.206 4
6.5619998 1.303 0.31900001 0
6.4899998 1.281 0.419 3
6.4650002 1.268 0.52100003 0
5.6009998 1.0880001 0.003 3
5.914 1.14 0.097000003 3
6.2610002 1.199 0.20200001 3
0 0 0 50
0 0 0 0
7.6269999 1.432 0.61199999 1
5.5879998 1.039 0.001 4
5.8850002 1.086 0.094999999 3
6.2449999 1.143 0.2 3
6.638 1.206 0.31799999 1
7.0879998 1.279 0.45199999 1
7.598 1.3609999 0.60600001 2
5.5770001 0.99000001 0 4
5.8779998 1.035 0.093000002 4
6.2340002 1.0880001 0.197 3
6.6139998 1.146 0.315 2
0 0 0 50
7.5710001 1.2920001 0.60100001 1
5.5679998 0.94300002 -0.001 4
5.8660002 0.98400003 0.090999998 3
6.2210002 1.035 0.19499999 3
6.5929999 1.087 0.31099999 1
7.0359998 1.151 0.44400001 1
7.5469999 1.225 0.597 1
5.5510001 0.89399999 -0.0020000001 4
0 0 0 50
6.2049999 0.98100001 0.193 3
6.5879998 1.0319999 0.30899999 2
7.0240002 1.091 0.442 1
7.5279999 1.159 0.59299999 1
5.5359998 0.847 -0.003 4
5.836 0.884 0.088 3
6.1890001 0.92699999 0.191 3
0 0 0 50
7.013 1.031 0.43900001 1
7.4980001 1.092 0.58899999 1
5.5229998 0.79900002 -0.0040000002 3
5.8309999 0.83499998 0.086999997 3
6.178 0.875 0.19 3
6.5539999 0.91799998 0.30500001 2
6.9920001 0.97000003 0.43599999 1
7.5159998 1.0319999 0.588 1
0 0 0 50
5.8130002 0.78500003 0.086000003 3
6.164 0.82300001 0.18799999 3
6.5430002 0.86299998 0.303 3
6.9840002 0.912 0.43399999 1
7.5289998 0.972 0.588 2
5.5079999 0.708 -0.0049999999 4
5.8080001 0.73699999 0.085000001 3
6.1539998 0.77200001 0.18700001 3
0 0 0 50
7.0289998 0.86000001 0.43599999 2
7.4790001 0.90499997 0.583 1
5.5050001 0.66399997 -0.0060000001 4
5.8049998 0.69099998 0.083999999 3
6.1389999 0.72100002 0.186 2
0 0 0 50
7.0170002 0.80199999 0.43399999 2
7.4710002 0.84299999 0.58099997 1
5.493 0.61900002 -0.0060000001 4
5.79 0.64300001 0.082999997 3
6.1399999 0.67199999 0.185 3
6.506 0.70099998 0.29899999 1
7.0040002 0.74400002 0.433 1
7.4520001 0.78100002 0.579 2
0 0 0 50
5.7810001 0.59600002 0.082999997 3
6.1230001 0.62099999 0.184 3
6.4959998 0.648 0.29800001 1
6.973 0.685 0.43000001 1
7.4250002 0.71799999 0.57599998 2
5.48 0.52999997 -0.0070000002 4
5.7820001 0.55000001 0.082999997 3
0 0 0 50
6.4980001 0.597 0.29800001 2
6.9549999 0.62800002 0.42899999 1
7.408 0.65700001 0.574 1
5.48 0.48699999 -0.0070000002 4
5.7729998 0.50400001 0.082000002 3
6.1059999 0.523 0.183 4
6.4790001 0.54400003 0.29699999 2
6.9289999 0.56999999 0.42699999 1
0 0 0 50
5.4749999 0.44400001 -0.0070000002 3
5.7639999 0.458 0.082000002 3
6.1020002 0.47499999 0.183 3
6.4720001 0.49200001 0.29699999 3
6.9089999 0.514 0.426 1
7.3709998 0.537 0.57099998 2
0 0 0 50
5.7459998 0.41100001 0.082000002 3
6.0949998 0.426 0.183 3
6.4629998 0.44100001 0.296 2
6.8800001 0.458 0.42399999 2
7.3530002 0.477 0.56999999 1
5.4549999 0.35800001 -0.0060000001 4
5.744 0.36700001 0.082000002 3
6.086 0.37799999 0.183 3
0 0 0 50
6.8740001 0.40400001 0.42399999 3
7.3520002 0.419 0.56999999 1
5.4559999 0.31600001 -0.0060000001 4
5.743 0.322 0.082999997 3
6.0780001 0.331 0.184 4
6.4439998 0.33899999 0.296 3
6.8600001 0.34900001 0.42399999 2
7.3439999 0.36199999 0.56999999 2
5.4439998 0.23199999 -0.0049999999 4
0 0 0 50
6.073 0.237 0.185 4
6.4380002 0.23999999 0.29800001 4
6.8540001 0.244 0.42500001 2
7.3260002 0.24699999 0.57099998 1
5.4460001 0.191 -0.0040000002 4
5.7360001 0.191 0.085000001 3
6.0679998 0.191 0.185 4
6.4439998 0.191 0.29800001 4
0 0 0 50
7.3070002 0.191 0.56999999 3
5.448 0.15000001 -0.003 5
5.7199998 0.147 0.085000001 4
6.066 0.145 0.186 3
6.434 0.142 0.29899999 4
6.8530002 0.138 0.42699999 1
7.309 0.13500001 0.57099998 1
5.448 0.109 -0.003 4
0 0 0 50
6.059 0.098999999 0.18700001 3
6.098 0.089000002 0.28400001 5
5.7639999 0.072999999 0.36000001 35
5.7690001 0.063000001 0.45199999 35
5.4499998 0.068999998 -0.0020000001 4
5.7319999 0.061999999 0.086999997 4
6.0599999 0.054000001 0.18799999 4
5.7680001 0.041000001 0.27000001 31
0 0 0 50
5.7030001 0.02 0.44800001 53
5.4689999 0.028999999 -0.001 5
5.7309999 0.018999999 0.088 4
5.914 0.0089999996 0.184 6
5.7069998 -0.001 0.26800001 49
5.664 -0.011 0.35600001 64
5.6719999 -0.022 0.447 73
0 0 0 50
5.7220001 -0.022 0.089000002 5
5.783 -0.033 0.182 17
5.6799998 -0.043000001 0.26800001 65
5.6529999 -0.052999999 0.35699999 80
5.6500001 -0.064000003 0.44600001 81
5.4569998 -0.050999999 0 4
5.7360001 -0.064000003 0.090999998 5
5.743 -0.075000003 0.18099999 36
0 0 0 50
5.6570001 -0.094999999 0.35800001 150
5.6539998 -0.106 0.44800001 86
5.4619999 -0.090000004 0.001 5
5.7270002 -0.105 0.092 4
5.7410002 -0.116 0.183 41
5.6680002 -0.126 0.27000001 64
5.6440001 -0.13600001 0.35800001 107
5.6529999 -0.147 0.449 80
5.467 -0.13 0.0020000001 4
0 0 0 50
5.7420001 -0.15800001 0.184 40
5.6700001 -0.167 0.271 64
5.6479998 -0.177 0.36000001 87
5.6570001 -0.189 0.45100001 78
5.46 -0.169 0.0040000002 4
5.724 -0.18799999 0.093999997 4
5.7529998 -0.2 0.186 36
5.6799998 -0.208 0.273 62
5.6550002 -0.21799999 0.36199999 82
5.6700001 -0.23 0.45300001 66
5.4489999 -0.207 0.0049999999 4
5.7249999 -0.229 0.094999999 4
5.7800002 -0.242 0.18799999 23
5.7010002 -0.25 0.27599999 55
0 0 0 50
5.7069998 -0.273 0.458 39
5.4569998 -0.24600001 0.0060000001 5
5.7290001 -0.26899999 0.097000003 4
5.9699998 -0.292 0.19499999 5
5.7319999 -0.292 0.278 32
5.723 -0.303 0.36899999 36
5.7859998 -0.31799999 0.46599999 18
5.4419999 -0.28400001 0.0070000002 4
5.71 -0.308 0.097999997 4
6.0440001 -0.338 0.199 4
5.862 -0.34 0.28600001 6
5.8400002 -0.34999999 0.37799999 12
7.342 -0.45500001 0.59299999 24
5.4289999 -0.32100001 0.0080000004 4
5.7080002 -0.34799999 0.098999999 4
6.046 -0.38100001 0.2 4
6.494 -0.42199999 0.31900001 4
6.9569998 -0.465 0.45199999 5
7.3460002 -0.50599998 0.59500003 24
5.427 -0.35800001 0.0089999996 4
5.7020001 -0.38699999 0.1 3
6.0430002 -0.42199999 0.20200001 3
6.4889998 -0.46599999 0.31999999 4
6.9590001 -0.514 0.454 6
7.3509998 -0.55800003 0.59799999 23
5.421 -0.39500001 0.0099999998 4
5.7030001 -0.426 0.101 4
6.04 -0.463 0.20299999 4
6.4959998 -0.51099998 0.322 3
6.9569998 -0.56199998 0.456 6
7.3410001 -0.60799998 0.59899998 21
5.415 -0.43099999 0.011 4
5.7010002 -0.465 0.102 4
6.0430002 -0.50400001 0.204 4
6.4889998 -0.55500001 0.32300001 3
6.9580002 -0.60900003 0.45699999 5
7.3429999 -0.65799999 0.60100001 23
5.4109998 -0.46700001 0.012 4
5.6939998 -0.50199997 0.103 4
6.0359998 -0.54400003 0.205 3
0 0 0 50
6.9429998 -0.65399998 0.458 5
7.349 -0.708 0.60299999 21
5.4130001 -0.50300002 0.013 4
5.6939998 -0.54000002 0.104 4
6.0359998 -0.58399999 0.206 4
6.4759998 -0.63999999 0.32499999 4
6.9429998 -0.70099998 0.46000001 5
7.3559999 -0.75800002 0.60500002 21
5.4109998 -0.53799999 0.014 4
5.684 -0.57700002 0.105 4
6.0289998 -0.62300003 0.207 4
6.4759998 -0.68300003 0.32600001 4
6.9510002 -0.74699998 0.461 5
7.3720002 -0.80800003 0.60799998 20
5.4130001 -0.574 0.015 4
5.677 -0.61299998 0.106 4
6.0250001 -0.662 0.208 4
6.4619999 -0.72299999 0.32699999 4
6.948 -0.792 0.463 5
7.3600001 -0.85399997 0.60799998 19
5.4070001 -0.60799998 0.015 4
5.6820002 -0.64999998 0.106 5
6.027 -0.70200002 0.20900001 4
6.461 -0.76499999 0.32699999 4
6.9419999 -0.83600003 0.463 5
7.355 -0.90100002 0.61000001 18
5.4070001 -0.64300001 0.016000001 4
5.6789999 -0.68599999 0.107 4
6.02 -0.73900002 0.20900001 4
6.4590001 -0.80599999 0.32800001 4
6.941 -0.88 0.46399999 4
7.3509998 -0.94800001 0.61000001 15
5.402 -0.676 0.016000001 5
5.6760001 -0.72100002 0.107 4
6.0190001 -0.77700001 0.20999999 4
6.3909998 -0.838 0.32600001 4
6.8039999 -0.90600002 0.456 3
7.277 -0.98400003 0.60500002 1
5.401 -0.70999998 0.017000001 4
5.6729999 -0.75599998 0.108 5
6.0190001 -0.81400001 0.211 4
0 0 0 50
6.8060002 -0.94800001 0.45699999 4
7.2670002 -1.028 0.60500002 1
5.3899999 -0.741 0.017000001 5
5.671 -0.79100001 0.108 4
6.0110002 -0.85000002 0.211 4
6.375 -0.91399997 0.32600001 4
6.7969999 -0.98900002 0.45699999 3
7.2659998 -1.072 0.60600001 1
5.4000001 -0.77600002 0.017000001 4
5.6659999 -0.824 0.108 4
5.993 -0.884 0.20999999 4
6.3730001 -0.95300001 0.32600001 4
6.7909999 -1.029 0.45699999 3
7.2519999 -1.114 0.60500002 2
5.3870001 -0.80599999 0.017000001 4
5.6599998 -0.85799998 0.108 5
5.994 -0.92000002 0.20999999 4
6.3709998 -0.99000001 0.32600001 4
6.7789998 -1.067 0.456 4
7.243 -1.156 0.60399997 1
5.3730001 -0.83600003 0.017000001 4
5.6570001 -0.88999999 0.108 4
5.9850001 -0.954 0.20999999 4
6.362 -1.026 0.32499999 4
6.7740002 -1.1059999 0.456 4
7.244 -1.199 0.60500002 1
5.3699999 -0.86699998 0.016000001 5
5.6539998 -0.92299998 0.107 5
5.987 -0.98799998 0.20900001 4
6.342 -1.059 0.324 5
6.7600002 -1.143 0.454 1
7.2270002 -1.237 0.60299999 1
5.3709998 -0.89700001 0.016000001 5
5.645 -0.95300001 0.107 4
5.9790001 -1.021 0.20900001 4
6.3449998 -1.096 0.324 4
6.7600002 -1.181 0.454 1
7.2179999 -1.276 0.602 1
5.3600001 -0.92500001 0.015 5
5.6300001 -0.98199999 0.106 5
5.9660001 -1.052 0.208 4
6.3340001 -1.1289999 0.322 4
6.7490001 -1.216 0.45199999 3
0 0 0 50
5.3520002 -0.954 0.014 5
5.6329999 -1.013 0.105 4
5.9689999 -1.085 0.207 5
6.329 -1.1619999 0.32100001 4
6.7389998 -1.251 0.45100001 3
7.1960001 -1.351 0.59799999 1
5.3520002 -0.98199999 0.013 5
5.6269999 -1.0420001 0.103 4
5.96 -1.115 0.205 4
6.316 -1.193 0.31900001 3
6.7179999 -1.2819999 0.44800001 3
7.1849999 -1.386 0.59600002 1
5.3330002 -1.007 0.011 5
5.6139998 -1.069 0.102 4
5.9559999 -1.145 0.204 4
6.3010001 -1.223 0.317 4
6.7150002 -1.317 0.44600001 1
7.1690001 -1.42 0.59299999 1
5.3299999 -1.034 0.0099999998 4
5.6030002 -1.097 0.1 4
5.9330001 -1.1720001 0.20100001 4
6.2930002 -1.2539999 0.315 4
6.7010002 -1.348 0.44400001 1
7.151 -1.4529999 0.58999997 1
5.3140001 -1.058 0.0080000004 4
5.599 -1.124 0.097999997 4
0 0 0 50
6.2740002 -1.281 0.31200001 3
6.6789999 -1.376 0.44100001 1
7.1459999 -1.487 0.58700001 1
5.3130002 -1.084 0.0060000001 5
5.586 -1.148 0.096000001 4
5.915 -1.226 0.197 4
6.2709999 -1.311 0.31 3
6.6789999 -1.408 0.43799999 1
7.1279998 -1.517 0.58399999 1
5.3060002 -1.108 0.0040000002 5
5.5700002 -1.171 0.093999997 5
5.901 -1.251 0.19400001 4
6.256 -1.337 0.30700001 3
6.645 -1.432 0.433 1
7.1100001 -1.546 0.579 2
5.302 -1.131 0.0020000001 4
5.566 -1.196 0.090999998 5
5.8940001 -1.276 0.191 4
6.2420001 -1.362 0.303 3
6.6420002 -1.462 0.43000001 3
7.085 -1.572 0.574 2
0 0 0 50
5.559 -1.22 0.088 5
5.8720002 -1.298 0.18799999 4
6.2290001 -1.387 0.30000001 2
6.619 -1.4859999 0.42500001 3
7.0609999 -1.598 0.56900001 1
5.27 -1.1720001 -0.003 4
5.539 -1.24 0.085000001 5
5.855 -1.319 0.184 4
6.2090001 -1.409 0.29499999 3
6.5949998 -1.508 0.41999999 2
7.046 -1.624 0.56400001 2
5.2600002 -1.192 -0.0060000001 4
5.5289998 -1.261 0.082000002 5
5.849 -1.3430001 0.18099999 4
6.1929998 -1.431 0.29100001 4
6.5840001 -1.533 0.41600001 3
7.0349998 -1.65 0.55800003 1
5.2459998 -1.21 -0.0089999996 4
0 0 0 50
5.8309999 -1.362 0.176 5
6.1430001 -1.444 0.285 12
6.5710001 -1.5549999 0.41100001 1
6.9990001 -1.669 0.551 1
5.224 -1.226 -0.012 4
5.494 -1.2970001 0.074000001 4
5.8080001 -1.3789999 0.17200001 4
6.1500001 -1.469 0.28099999 5
6.5409999 -1.573 0.405 3
6.9770002 -1.689 0.54500002 1
5.217 -1.244 -0.016000001 4
5.487 -1.316 0.07 4
5.7880001 -1.395 0.167 4
6.1329999 -1.487 0.27599999 4
6.513 -1.59 0.39899999 1
6.9559999 -1.709 0.53799999 1
0 0 0 50
5.4689999 -1.331 0.066 5
5.776 -1.413 0.162 4
6.119 -1.506 0.271 5
6.5019999 -1.609 0.39300001 1
6.9239998 -1.725 0.53100002 1
5.191 -1.275 -0.024 4
5.4489999 -1.345 0.061000001 4
5.7600002 -1.428 0.15700001 4
6.1059999 -1.523 0.26499999 5
6.4720001 -1.623 0.38600001 1
6.9000001 -1.7410001 0.523 1
5.1719999 -1.288 -0.028000001 4
5.441 -1.36 0.057 4
5.744 -1.443 0.152 4
6.0830002 -1.536 0.259 4
6.4460001 -1.636 0.37900001 1
6.8779998 -1.756 0.51599997 1
0 0 0 50
5.4190001 -1.372 0.052000001 4
5.7140002 -1.452 0.147 4
6.0619998 -1.548 0.25299999 4
6.4250002 -1.649 0.37200001 3
6.8400002 -1.765 0.50700003 1
5.125 -1.307 -0.037 5
5.3979998 -1.382 0.046999998 4
5.6960001 -1.464 0.141 4
6.0359998 -1.558 0.24600001 3
6.414 -1.664 0.366 3
6.8439999 -1.784 0.50099999 1
5.118 -1.319 -0.041999999 5
5.3829999 -1.392 0.041000001 4
0 0 0 50
6.0139999 -1.568 0.23999999 4
6.4000001 -1.676 0.359 3
6.8330002 -1.798 0.49399999 2
5.1020002 -1.3279999 -0.046999998 5
5.368 -1.402 0.035999998 4
5.6570001 -1.483 0.12899999 3
5.9829998 -1.574 0.233 4
6.3870001 -1.687 0.35100001 3
6.8260002 -1.812 0.486 1
5.086 -1.336 -0.052000001 5
5.335 -1.406 0.029999999 4
5.6360002 -1.49 0.123 4
5.9549999 -1.58 0.22499999 4
6.3559999 -1.693 0.34299999 4
6.8000002 -1.819 0.477 2
5.0630002 -1.342 -0.057 4
5.3189998 -1.413 0.025 4
0 0 0 50
5.9429998 -1.5880001 0.219 4
6.3400002 -1.7 0.33500001 4
6.789 -1.8279999 0.46900001 2
5.0570002 -1.35 -0.061999999 5
5.2940001 -1.416 0.018999999 4
5.586 -1.498 0.11 4
5.9190001 -1.592 0.211 4
6.3070002 -1.702 0.32699999 4
6.7729998 -1.835 0.46000001 2
0 0 0 50
5.2810001 -1.4220001 0.013 4
5.5619998 -1.501 0.103 4
5.8979998 -1.596 0.204 4
6.2989998 -1.709 0.31999999 4
6.7509999 -1.8380001 0.45100001 2
5.0170002 -1.3559999 -0.072999999 4
5.257 -1.423 0.0070000002 4
5.5370002 -1.502 0.096000001 4
5.8629999 -1.594 0.19599999 5
6.27 -1.71 0.31099999 3
6.7220001 -1.839 0.442 2
0 0 0 50
5.244 -1.426 0.001 4
5.5219998 -1.505 0.089000002 4
5.8379998 -1.594 0.189 4
6.2379999 -1.707 0.30199999 1
6.6939998 -1.8380001 0.43200001 2
4.9749999 -1.357 -0.083999999 4
5.2210002 -1.426 -0.0040000002 4
5.5050001 -1.506 0.082999997 3
5.8200002 -1.595 0.18099999 5
6.1999998 -1.702 0.29300001 2
6.6690001 -1.836 0.42199999 2
0 0 0 50
5.2010002 -1.425 -0.0099999998 4
5.4699998 -1.5 0.075999998 4
5.7909999 -1.591 0.17299999 5
6.1729999 -1.699 0.28400001 3
6.6279998 -1.8279999 0.412 2
4.941 -1.3559999 -0.094999999 5
5.1820002 -1.423 -0.017000001 4
5.448 -1.498 0.068999998 4
5.7740002 -1.589 0.16599999 4
6.1339998 -1.691 0.27500001 3
6.5869999 -1.819 0.40099999 2
0 0 0 50
5.1550002 -1.418 -0.023 5
5.434 -1.4960001 0.061999999 4
5.7399998 -1.582 0.15800001 4
6.099 -1.683 0.266 3
6.5419998 -1.808 0.391 3
4.908 -1.352 -0.106 5
5.1440001 -1.4170001 -0.028999999 5
5.4039998 -1.488 0.055 5
5.7140002 -1.575 0.15000001 4
6.086 -1.679 0.25799999 3
0 0 0 50
4.8920002 -1.348 -0.112 5
5.1209998 -1.41 -0.035 5
5.3860002 -1.483 0.048 5
5.6900001 -1.567 0.14300001 4
6.0419998 -1.666 0.248 4
6.4619999 -1.783 0.36899999 4
4.8759999 -1.3430001 -0.118 5
5.1020002 -1.404 -0.041000001 5
5.369 -1.477 0.041999999 5
5.6669998 -1.559 0.13500001 4
6.0149999 -1.656 0.23999999 4
0 0 0 50
4.8569999 -1.336 -0.123 5
5.0840001 -1.397 -0.046999998 5
5.3439999 -1.4680001 0.035 5
5.6420002 -1.549 0.127 4
5.9809999 -1.642 0.23100001 4
6.4060001 -1.76 0.34999999 4
4.836 -1.3279999 -0.12899999 5
5.0700002 -1.39 -0.054000001 5
5.329 -1.46 0.028000001 4
5.6170001 -1.538 0.12 4
5.96 -1.632 0.223 4
0 0 0 50
4.8239999 -1.321 -0.134 5
5.0510001 -1.381 -0.059 5
5.302 -1.448 0.022 4
5.599 -1.527 0.113 4
5.9239998 -1.615 0.214 4
6.3150001 -1.722 0.33000001 5
4.803 -1.311 -0.139 5
5.0349998 -1.3710001 -0.064999998 4
5.283 -1.437 0.015 4
5.5760002 -1.515 0.106 4
5.902 -1.602 0.206 4
6.3049998 -1.711 0.322 4
0 0 0 50
5.0229998 -1.362 -0.071000002 4
5.27 -1.426 0.0089999996 4
5.5570002 -1.502 0.098999999 4
5.8790002 -1.587 0.199 4
6.2480001 -1.6849999 0.31099999 4
4.776 -1.291 -0.15000001 5
4.9990001 -1.348 -0.077 4
5.2459998 -1.4119999 0.003 5
5.533 -1.487 0.092 4
5.8540001 -1.571 0.191 4
0 0 0 50
4.7649999 -1.281 -0.155 5
4.9780002 -1.334 -0.082000002 4
5.2270002 -1.398 -0.0020000001 5
5.5190001 -1.473 0.085000001 4
5.8239999 -1.552 0.183 5
6.1890001 -1.647 0.294 5
4.7470002 -1.267 -0.16 5
4.9650002 -1.321 -0.086999997 4
5.2199998 -1.385 -0.0080000004 4
5.493 -1.455 0.079000004 4
5.8109999 -1.536 0.176 4
6.158 -1.625 0.28600001 5
4.7329998 -1.2539999 -0.164 4
4.954 -1.308 -0.093000002 4
5.1929998 -1.367 -0.014 4
5.473 -1.437 0.071999997 4
5.7859998 -1.516 0.169 4
6.1240001 -1.601 0.27700001 5
4.7140002 -1.239 -0.169 5
4.9349999 -1.2920001 -0.097999997 4
5.177 -1.351 -0.018999999 4
0 0 0 50
5.763 -1.4960001 0.163 4
6.1160002 -1.584 0.27000001 5
4.7020001 -1.224 -0.17299999 4
4.921 -1.276 -0.102 4
5.1620002 -1.334 -0.025 4
5.4400001 -1.401 0.059999999 5
5.7449999 -1.476 0.156 4
6.0840001 -1.559 0.26199999 5
4.6989999 -1.211 -0.178 5
4.9130001 -1.261 -0.107 4
5.1469998 -1.316 -0.029999999 5
5.4250002 -1.382 0.054000001 4
5.7319999 -1.456 0.149 4
6.0770001 -1.539 0.25600001 5
4.6880002 -1.196 -0.182 4
4.8979998 -1.243 -0.112 4
5.1329999 -1.298 -0.034000002 5
5.4029999 -1.3609999 0.048999999 5
5.71 -1.433 0.14399999 5
0 0 0 50
4.6729999 -1.178 -0.186 4
4.882 -1.225 -0.116 4
5.1230001 -1.279 -0.039000001 4
5.395 -1.342 0.044 5
5.698 -1.4119999 0.138 5
6.033 -1.49 0.243 5
4.6680002 -1.1619999 -0.19 4
4.8800001 -1.2079999 -0.12 4
5.1110001 -1.26 -0.044 4
5.3850002 -1.321 0.039000001 4
0 0 0 50
6.0149999 -1.464 0.237 5
4.6589999 -1.1440001 -0.19400001 4
4.8590002 -1.187 -0.124 4
5.105 -1.24 -0.048999999 5
5.3759999 -1.3 0.034000002 4
5.6719999 -1.3660001 0.127 5
6.0040002 -1.4400001 0.23100001 5
4.651 -1.126 -0.197 5
4.8540001 -1.168 -0.12800001 4
5.0910001 -1.219 -0.052000001 4
5.3629999 -1.278 0.029999999 4
5.651 -1.34 0.122 5
5.9879999 -1.413 0.22499999 5
4.6339998 -1.105 -0.2 6
0 0 0 50
5.086 -1.198 -0.056000002 5
5.3509998 -1.2539999 0.025 5
5.6399999 -1.3150001 0.117 5
5.9720001 -1.386 0.22 5
4.6279998 -1.086 -0.20299999 5
4.8369999 -1.127 -0.13500001 5
5.0780001 -1.176 -0.059999999 4
5.3429999 -1.2309999 0.021 5
5.631 -1.29 0.113 5
5.9549999 -1.358 0.215 6
4.6269999 -1.067 -0.206 4
4.8309999 -1.1059999 -0.138 4
5.0739999 -1.155 -0.064000003 5
5.3299999 -1.206 0.017999999 5
0 0 0 50
5.947 -1.331 0.20999999 5
4.618 -1.045 -0.20900001 4
4.8260002 -1.085 -0.141 4
5.0580001 -1.13 -0.067000002 5
5.3150001 -1.179 0.014 5
5.612 -1.238 0.105 5
5.9380002 -1.302 0.206 5
4.6110001 -1.024 -0.212 5
4.8210001 -1.063 -0.14399999 4
5.0609999 -1.108 -0.07 5
5.3099999 -1.155 0.011 5
0 0 0 50
5.9320002 -1.274 0.20200001 5
4.6020002 -1.002 -0.213 6
4.8080001 -1.038 -0.146 5
5.0489998 -1.0829999 -0.071999997 5
5.303 -1.1289999 0.0080000004 4
5.5809999 -1.181 0.097000003 5
5.9229999 -1.245 0.198 5
4.5970001 -0.97899997 -0.21600001 5
4.8109999 -1.017 -0.149 5
5.0440001 -1.058 -0.075000003 5
5.3000002 -1.104 0.0049999999 5
5.585 -1.155 0.094999999 5
5.9260001 -1.217 0.19499999 5
4.5929999 -0.95700002 -0.21799999 6
4.8109999 -0.99400002 -0.15099999 5
5.04 -1.033 -0.077 5
0 0 0 50
5.5900002 -1.1289999 0.092 6
5.9130001 -1.1849999 0.192 5
4.5949998 -0.935 -0.22 7
4.802 -0.96799999 -0.153 5
5.0359998 -1.007 -0.079000004 5
5.2940001 -1.05 0 5
5.5749998 -1.097 0.089000002 5
5.9089999 -1.155 0.189 5
4.592 -0.91100001 -0.222 6
4.8049998 -0.94499999 -0.155 6
5.0370002 -0.98199999 -0.082000002 5
5.2870002 -1.022 -0.001 5
5.5710001 -1.068 0.086999997 5
5.9039998 -1.123 0.186 5
4.5890002 -0.88700002 -0.223 7
4.802 -0.91900003 -0.156 5
5.0219998 -0.95300001 -0.082999997 5
5.2839999 -0.99400002 -0.003 5
5.573 -1.039 0.085000001 5
5.902 -1.092 0.184 5
4.5890002 -0.86299998 -0.22400001 6
0 0 0 50
5.0180001 -0.92500001 -0.083999999 5
5.2859998 -0.96600002 -0.0049999999 5
5.5700002 -1.0089999 0.082999997 5
5.8959999 -1.058 0.182 5
4.5809999 -0.83600003 -0.22499999 4
4.7950001 -0.86699998 -0.15899999 6
5.013 -0.89700001 -0.086000003 5
5.2909999 -0.93800002 -0.0060000001 5
5.573 -0.97799999 0.081 5
5.8990002 -1.026 0.18000001 5
4.5910001 -0.81300002 -0.227 7
4.7989998 -0.84100002 -0.16 5
5.026 -0.87099999 -0.086999997 5
5.2919998 -0.90799999 -0.0070000002 5
5.5710001 -0.94700003 0.079999998 5
5.8969998 -0.99299997 0.178 5
4.6040001 -0.78899997 -0.228 8
4.8010001 -0.81400001 -0.161 7
5.0250001 -0.84299999 -0.088 5
5.289 -0.87800002 -0.0089999996 5
5.5679998 -0.91500002 0.079000004 5
5.8940001 -0.958 0.177 6
4.5890002 -0.75999999 -0.228 7
0 0 0 50
5.0320001 -0.815 -0.089000002 4
5.2789998 -0.84500003 -0.0099999998 4
5.573 -0.88300002 0.078000002 4
5.895 -0.92400002 0.176 5
4.5830002 -0.73199999 -0.229 6
4.7969999 -0.75800002 -0.162 5
5.0320001 -0.78500003 -0.090000004 5
5.283 -0.815 -0.0099999998 4
5.5749998 -0.85000002 0.077 5
5.908 -0.89099997 0.176 5
4.5939999 -0.70700002 -0.23 6
4.8080001 -0.73100001 -0.163 4
5.033 -0.755 -0.090000004 5
5.2930002 -0.78500003 -0.011 4
5.5770001 -0.81699997 0.075999998 4
5.902 -0.85500002 0.175 5
4.605 -0.68099999 -0.23 6
4.8109999 -0.70200002 -0.164 6
5.0370002 -0.72500002 -0.090999998 4
5.29 -0.75199997 -0.011 4
5.5819998 -0.78399998 0.075999998 4
5.902 -0.81900001 0.17399999 5
4.6020002 -0.65200001 -0.23 5
4.8150001 -0.67299998 -0.164 4
5.0409999 -0.69499999 -0.090999998 5
5.3070002 -0.722 -0.012 5
5.579 -0.74900001 0.075000003 5
5.908 -0.78299999 0.17399999 5
4.599 -0.62300003 -0.23 6
4.8169999 -0.64300001 -0.164 5
5.0440001 -0.66399997 -0.092 5
5.3049998 -0.68900001 -0.012 4
5.5890002 -0.71600002 0.075000003 5
5.9169998 -0.74699998 0.17399999 5
4.6030002 -0.59500003 -0.23 6
4.8169999 -0.61299998 -0.164 4
5.052 -0.63300002 -0.092 5
5.316 -0.65700001 -0.012 5
5.592 -0.68099999 0.075000003 4
5.9219999 -0.71100003 0.17399999 5
0 0 0 50
4.822 -0.583 -0.164 6
5.0549998 -0.602 -0.090999998 5
5.322 -0.62400001 -0.012 5
5.5999999 -0.64600003 0.075999998 5
5.9369998 -0.67400002 0.17399999 5
4.6090002 -0.537 -0.23 6
4.8299999 -0.55299997 -0.164 5
5.066 -0.56999999 -0.090999998 4
5.3249998 -0.58899999 -0.011 5
5.6100001 -0.611 0.075999998 5
5.9439998 -0.63700002 0.175 5
4.6209998 -0.50800002 -0.23 5
4.8379998 -0.52200001 -0.164 5
5.0669999 -0.53799999 -0.090999998 5
5.335 -0.55599999 -0.011 5
5.6110001 -0.574 0.075999998 5
5.9439998 -0.59799999 0.175 5
4.6209998 -0.47799999 -0.229 4
4.8369999 -0.491 -0.163 6
5.0689998 -0.50400001 -0.090000004 5
5.335 -0.52100003 -0.011 5
5.6230001 -0.53899997 0.077 5
5.961 -0.56 0.176 5
4.631 -0.44800001 -0.229 6
4.848 -0.46000001 -0.163 4
5.0780001 -0.472 -0.090000004 4
5.3429999 -0.486 -0.0099999998 4
5.6269999 -0.50099999 0.077 4
5.9580002 -0.51999998 0.176 5
4.632 -0.417 -0.229 7
4.848 -0.42699999 -0.162 5
5.0869999 -0.43799999 -0.090000004 4
5.355 -0.45100001 -0.0099999998 4
5.638 -0.465 0.078000002 5
5.9699998 -0.48100001 0.177 4
4.638 -0.38600001 -0.228 6
4.8639998 -0.39500001 -0.162 4
5.0929999 -0.40400001 -0.089000002 4
5.3509998 -0.414 -0.0089999996 4
5.6440001 -0.42699999 0.079000004 4
0 0 0 50
4.6440001 -0.354 -0.228 6
4.8569999 -0.361 -0.161 6
5.0960002 -0.36899999 -0.088 4
5.3600001 -0.37799999 -0.0080000004 4
5.652 -0.38800001 0.079999998 4
5.9809999 -0.40000001 0.17900001 4
4.6440001 -0.322 -0.227 7
4.868 -0.32800001 -0.161 5
5.1040001 -0.33399999 -0.088 4
5.369 -0.34200001 -0.0070000002 5
5.664 -0.34999999 0.081 4
5.993 -0.359 0.18000001 5
4.6560001 -0.28999999 -0.227 6
4.868 -0.294 -0.16 7
5.1090002 -0.29899999 -0.086999997 5
5.3850002 -0.30500001 -0.0060000001 5
5.671 -0.31099999 0.082000002 5
6 -0.31799999 0.18099999 5
4.6620002 -0.25799999 -0.226 6
4.8790002 -0.25999999 -0.15899999 4
5.1350002 -0.264 -0.086000003 5
5.4099998 -0.26800001 -0.0060000001 5
5.6950002 -0.27200001 0.082999997 4
5.895 -0.271 0.17900001 11
4.6669998 -0.22400001 -0.22499999 6
4.8969998 -0.226 -0.15899999 4
5.1479998 -0.228 -0.086000003 5
5.4299998 -0.23 -0.0049999999 5
5.7119999 -0.23199999 0.083999999 5
0 0 0 50
4.6760001 -0.191 -0.22499999 7
4.9029999 -0.191 -0.15800001 5
5.1589999 -0.192 -0.085000001 5
5.4380002 -0.192 -0.0040000002 5
5.7270002 -0.191 0.085000001 5
5.7550001 -0.182 0.176 43
4.691 -0.15800001 -0.22499999 6
4.902 -0.156 -0.15700001 5
5.171 -0.154 -0.083999999 5
5.441 -0.152 -0.003 5
5.7340002 -0.15000001 0.086000003 5
5.7340002 -0.14 0.177 46
4.6919999 -0.123 -0.22400001 6
4.9219999 -0.12 -0.15700001 4
5.1799998 -0.117 -0.083999999 5
5.4549999 -0.113 -0.0020000001 5
5.7350001 -0.108 0.086999997 5
5.7329998 -0.097999997 0.178 48
4.7059999 -0.089000002 -0.223 6
4.9349999 -0.083999999 -0.156 5
5.1929998 -0.079000004 -0.082999997 5
5.4650002 -0.072999999 -0.001 5
5.7470002 -0.067000002 0.088 5
5.7610002 -0.056000002 0.17900001 33
0 0 0 50
4.9380002 -0.048 -0.156 6
5.1880002 -0.041000001 -0.082000002 5
5.4660001 -0.033 0 5
5.7540002 -0.025 0.089000002 5
5.816 -0.014 0.182 17
4.717 -0.018999999 -0.222 7
4.947 -0.011 -0.155 6
5.2059999 -0.003 -0.081 4
5.4679999 0.0060000001 0 5
5.7579999 0.017000001 0.090000004 4
6.039 0.028999999 0.19 5
4.7379999 0.015 -0.222 7
4.9450002 0.025 -0.154 5
5.2069998 0.035 -0.079999998 4
5.4780002 0.046999998 0.001 4
5.7690001 0.059999999 0.090999998 5
6.1110001 0.074000001 0.193 4
4.7309999 0.050999999 -0.221 7
4.948 0.061999999 -0.153 5
5.1919999 0.074000001 -0.079000004 5
5.4689999 0.088 0.0020000001 5
0 0 0 50
6.1170001 0.12 0.19400001 4
4.7319999 0.086999997 -0.22 6
4.9559999 0.1 -0.153 5
5.1989999 0.114 -0.079000004 4
5.4710002 0.12899999 0.0020000001 4
5.7820001 0.147 0.093000002 4
6.1259999 0.167 0.19499999 5
4.7529998 0.123 -0.221 8
4.9650002 0.138 -0.153 6
5.2049999 0.153 -0.078000002 4
5.4809999 0.171 0.003 5
5.7870002 0.191 0.093999997 4
6.1339998 0.213 0.19599999 5
4.756 0.16 -0.22 5
4.9770002 0.176 -0.152 6
5.211 0.19400001 -0.077 4
5.4910002 0.214 0.0040000002 4
5.7969999 0.235 0.094999999 4
6.1329999 0.25999999 0.197 4
4.7649999 0.197 -0.22 7
4.98 0.214 -0.152 5
5.223 0.234 -0.077 4
5.5009999 0.25600001 0.0040000002 4
5.7989998 0.28 0.096000001 4
6.1409998 0.308 0.198 4
4.7610002 0.234 -0.219 6
4.9889998 0.25400001 -0.152 4
5.2420001 0.27599999 -0.077 4
0 0 0 50
5.8130002 0.32600001 0.097000003 4
6.1500001 0.35499999 0.199 5
4.763 0.271 -0.219 5
4.9910002 0.29300001 -0.15099999 4
5.2410002 0.31600001 -0.077 4
5.5190001 0.34200001 0.0049999999 4
5.8210001 0.37099999 0.097000003 4
6.1620002 0.40400001 0.2 5
4.7750001 0.31 -0.22 5
4.9889998 0.33199999 -0.15099999 5
5.2410002 0.35699999 -0.075999998 4
5.5149999 0.38499999 0.0060000001 4
5.8239999 0.41600001 0.097000003 4
6.1700001 0.45199999 0.2 4
4.7800002 0.347 -0.219 5
5.0040002 0.37200001 -0.15099999 4
5.2480001 0.39899999 -0.075999998 4
0 0 0 50
5.835 0.463 0.097999997 4
6.1810002 0.50099999 0.20100001 4
4.7789998 0.38499999 -0.219 5
5.007 0.412 -0.15099999 4
5.2600002 0.44100001 -0.075999998 4
5.5320001 0.47299999 0.0060000001 4
5.848 0.50999999 0.097999997 4
6.1950002 0.551 0.20200001 4
4.7950001 0.42500001 -0.22 6
5.0149999 0.45199999 -0.15099999 4
5.2729998 0.484 -0.075999998 4
5.5289998 0.51700002 0.0060000001 4
5.848 0.55599999 0.097999997 4
6.2010002 0.60100001 0.20200001 4
4.79 0.463 -0.22 6
5.0159998 0.493 -0.15099999 4
5.2649999 0.52600002 -0.075999998 4
5.5419998 0.56300002 0.0060000001 5
5.855 0.60399997 0.097999997 3
6.2080002 0.65100002 0.20200001 4
4.796 0.50300002 -0.221 6
5.0110002 0.53299999 -0.152 6
5.2690001 0.56800002 -0.075999998 4
5.5500002 0.60799998 0.0060000001 4
5.8649998 0.65100002 0.097999997 4
6.211 0.69999999 0.20200001 4
0 0 0 50
5.026 0.57499999 -0.152 5
5.2779999 0.61199999 -0.077 4
5.5570002 0.653 0.0049999999 4
5.8670001 0.699 0.097999997 4
6.2259998 0.75300002 0.20200001 4
4.7950001 0.58099997 -0.221 6
5.0310001 0.61699998 -0.153 4
5.2800002 0.65600002 -0.077 5
5.5549998 0.69800001 0.0049999999 4
5.8769999 0.74800003 0.097999997 4
6.2329998 0.80400002 0.20200001 4
4.8140001 0.62300003 -0.223 7
5.0310001 0.65799999 -0.154 5
5.2880001 0.69999999 -0.078000002 4
5.5650001 0.745 0.0040000002 4
5.8850002 0.79699999 0.097999997 4
6.244 0.85600001 0.20200001 4
4.8109999 0.662 -0.223 6
5.039 0.70099998 -0.155 5
5.2940001 0.74400002 -0.079000004 5
0 0 0 50
5.8860002 0.84600002 0.097000003 4
6.2420001 0.90700001 0.20100001 4
4.8140001 0.70300001 -0.22499999 6
5.033 0.74199998 -0.155 4
5.289 0.787 -0.079999998 4
5.572 0.838 0.003 4
5.8860002 0.89399999 0.096000001 4
6.2509999 0.95999998 0.20100001 4
4.8169999 0.74400002 -0.226 5
5.0430002 0.78500003 -0.15700001 5
5.2919998 0.83099997 -0.081 4
5.5739999 0.884 0.0020000001 4
5.8979998 0.94499999 0.094999999 4
6.2490001 1.011 0.2 4
4.823 0.78500003 -0.227 6
5.0339999 0.82599998 -0.15800001 4
5.2930002 0.87599999 -0.082000002 4
0 0 0 50
5.9060001 0.995 0.094999999 4
6.2550001 1.063 0.199 4
4.8249998 0.82599998 -0.228 6
5.0359998 0.86799997 -0.15899999 4
5.2979999 0.921 -0.082999997 4
5.5809999 0.97799999 0 4
5.8979998 1.043 0.093000002 4
6.2579999 1.1160001 0.198 4
4.816 0.86500001 -0.23 6
5.0430002 0.91299999 -0.16 5
5.2950001 0.96499997 -0.085000001 4
5.5960002 1.028 -0.001 5
5.9130001 1.095 0.092 4
6.2610002 1.169 0.197 4
4.8210001 0.90700001 -0.23100001 7
5.0419998 0.95499998 -0.162 5
5.3000002 1.011 -0.086000003 5
5.592 1.075 -0.0020000001 4
5.915 1.146 0.090999998 4
6.263 1.223 0.19499999 4
4.8189998 0.949 -0.233 6
5.0419998 0.99900001 -0.164 5
5.2989998 1.057 -0.088 4
0 0 0 50
5.9200001 1.197 0.089000002 4
6.283 1.28 0.19400001 4
4.8260002 0.99199998 -0.235 7
5.039 1.041 -0.16500001 4
5.296 1.101 -0.090000004 5
5.586 1.169 -0.0060000001 4
5.915 1.247 0.086999997 4
6.2670002 1.33 0.192 5
4.8150001 1.031 -0.237 7
5.0359998 1.084 -0.167 6
5.2979999 1.147 -0.092 5
5.5869999 1.2180001 -0.0070000002 4
5.9099998 1.296 0.085000001 4
6.2639999 1.383 0.19 4
4.822 1.075 -0.23899999 7
0 0 0 50
5.3119998 1.196 -0.093999997 5
5.5879998 1.266 -0.0099999998 4
5.914 1.348 0.082999997 4
6.2649999 1.438 0.18799999 4
4.8060002 1.114 -0.241 6
5.0370002 1.173 -0.17200001 5
5.3000002 1.2410001 -0.096000001 4
5.5910001 1.316 -0.012 4
5.914 1.4 0.081 4
6.2680001 1.493 0.186 3
4.8070002 1.1569999 -0.244 4
5.0339999 1.216 -0.17399999 4
5.2950001 1.286 -0.097999997 4
5.5910001 1.365 -0.014 4
5.9120002 1.451 0.079000004 4
6.263 1.5470001 0.184 4
4.8080001 1.2 -0.24600001 6
5.039 1.263 -0.177 4
0 0 0 50
5.579 1.411 -0.017000001 4
5.908 1.502 0.075999998 3
6.2600002 1.601 0.18099999 3
4.8039999 1.242 -0.249 6
5.027 1.304 -0.17900001 5
5.2820001 1.377 -0.103 4
5.5760002 1.46 -0.018999999 4
5.9070001 1.554 0.074000001 4
6.2579999 1.655 0.17900001 3
4.8039999 1.285 -0.252 6
5.0289998 1.35 -0.182 5
5.2870002 1.425 -0.106 4
0 0 0 50
5.9039998 1.6059999 0.071000002 3
6.263 1.712 0.176 3
4.8000002 1.327 -0.255 6
5.026 1.395 -0.185 5
5.2789998 1.47 -0.109 4
5.5710001 1.558 -0.025 4
5.902 1.658 0.068000004 3
6.263 1.768 0.17299999 4
4.7919998 1.369 -0.257 4
5.0170002 1.438 -0.18799999 4
5.2820001 1.5190001 -0.112 4
5.5710001 1.608 -0.028000001 4
5.9000001 1.711 0.064999998 4
6.2519999 1.821 0.17 3
4.7919998 1.413 -0.26100001 5
5.02 1.484 -0.191 4
5.2849998 1.568 -0.116 4
5.573 1.659 -0.032000002 3
5.8930001 1.762 0.061000001 4
6.257 1.8789999 0.167 4
4.796 1.4579999 -0.264 4
5.013 1.528 -0.19499999 5
5.2779999 1.613 -0.119 4
5.5630002 1.707 -0.035 4
5.895 1.816 0.057999998 3
6.2410002 1.9299999 0.163 3
4.7800002 1.498 -0.26699999 4
5.0110002 1.574 -0.198 4
5.27 1.66 -0.122 4
0 0 0 50
5.8909998 1.869 0.055 3
6.2420001 1.988 0.16 3
4.7719998 1.539 -0.27000001 4
5.0050001 1.618 -0.20100001 4
5.2610002 1.706 -0.126 4
5.559 1.808 -0.041999999 4
5.8779998 1.918 0.050999999 4
6.2360001 2.043 0.156 3
4.7690001 1.5829999 -0.27399999 4
5.0019999 1.664 -0.205 4
5.2610002 1.755 -0.12899999 4
5.553 1.857 -0.045000002 3
5.8800001 1.973 0.048 3
6.2329998 2.0999999 0.153 3
4.7639999 1.626 -0.278 4
4.9990001 1.71 -0.20900001 4
5.2540002 1.801 -0.133 4
5.5430002 1.906 -0.048999999 3
5.875 2.026 0.044 3
6.2350001 2.158 0.149 3
4.7639999 1.671 -0.28200001 5
4.9949999 1.755 -0.213 5
5.2490001 1.849 -0.13699999 5
5.5380001 1.956 -0.052999999 4
5.8699999 2.079 0.039999999 4
6.2270002 2.2130001 0.145 3
4.7540002 1.7130001 -0.285 5
4.9829998 1.799 -0.21600001 4
5.2319999 1.892 -0.14 5
5.5240002 2.003 -0.057 4
5.855 2.1289999 0.035999998 4
6.2270002 2.2720001 0.141 3
4.7449999 1.755 -0.289 5
4.9790001 1.845 -0.221 4
5.2249999 1.939 -0.14399999 4
5.5289998 2.0569999 -0.061000001 4
5.8499999 2.1830001 0.032000002 3
0 0 0 50
4.7410002 1.8 -0.29300001 5
4.973 1.89 -0.22499999 5
5.2280002 1.9910001 -0.149 5
5.52 2.1059999 -0.064999998 4
5.8439999 2.2360001 0.028000001 2
6.2280002 2.3900001 0.133 3
4.7270002 1.84 -0.29699999 5
4.9590001 1.933 -0.228 5
5.2140002 2.0350001 -0.153 4
5.5139999 2.1570001 -0.068999998 4
5.8439999 2.2920001 0.023 3
6.217 2.4449999 0.12899999 4
4.724 1.885 -0.301 5
4.9489999 1.977 -0.23199999 4
5.217 2.0869999 -0.15700001 4
5.5040002 2.2060001 -0.072999999 3
5.8309999 2.3429999 0.018999999 3
6.2719998 2.526 0.126 1
4.717 1.928 -0.30599999 5
4.9439998 2.023 -0.237 4
5.2020001 2.131 -0.161 5
5.5009999 2.2579999 -0.078000002 4
5.823 2.395 0.015 3
6.303 2.5999999 0.122 2
4.7119999 1.973 -0.31 4
4.9429998 2.0710001 -0.241 4
5.198 2.181 -0.16599999 4
5.487 2.306 -0.082000002 3
5.8130002 2.448 0.0099999998 2
6.3600001 2.6849999 0.119 2
4.7030001 2.016 -0.31400001 5
4.9310002 2.115 -0.245 4
5.1880002 2.227 -0.17 4
5.4829998 2.3570001 -0.086000003 3
0 0 0 50
6.401 2.7639999 0.115 2
4.6950002 2.059 -0.31900001 4
4.9200001 2.158 -0.25 4
5.1739998 2.2720001 -0.17399999 4
5.4780002 2.408 -0.090999998 3
5.8169999 2.562 0.001 2
6.3270001 2.7939999 0.109 2
4.6849999 2.1010001 -0.32300001 5
4.914 2.2049999 -0.25400001 4
5.1690001 2.3210001 -0.17900001 4
5.467 2.457 -0.094999999 1
5.8099999 2.6159999 -0.0020000001 3
6.3080001 2.8469999 0.105 1
4.6750002 2.1440001 -0.32699999 5
4.908 2.2509999 -0.259 4
5.1680002 2.372 -0.184 4
5.4640002 2.5109999 -0.1 3
5.8130002 2.675 -0.0070000002 1
6.3140001 2.9119999 0.1 4
4.6690001 2.188 -0.33199999 4
4.8959999 2.2950001 -0.26300001 4
5.1539998 2.4170001 -0.18799999 4
5.4569998 2.562 -0.104 3
5.8319998 2.7420001 -0.011 1
6.3860002 3.0090001 0.097000003 2
4.6609998 2.2320001 -0.336 4
4.8860002 2.3399999 -0.26699999 4
5.1440001 2.464 -0.192 4
0 0 0 50
5.8520002 2.8099999 -0.016000001 1
6.355 3.0580001 0.092 2
4.652 2.2750001 -0.34099999 5
4.875 2.3840001 -0.27200001 4
5.1420002 2.5150001 -0.197 4
5.4390001 2.6630001 -0.113 2
5.8540001 2.8699999 -0.02 1
6.3670001 3.1270001 0.088 2
4.6389999 2.316 -0.345 4
4.8709998 2.4319999 -0.27599999 4
5.1279998 2.5610001 -0.20100001 4
5.447 2.7219999 -0.118 4
5.8850002 2.944 -0.025 2
6.3369999 3.1760001 0.082999997 2
4.632 2.3599999 -0.34900001 5
4.8590002 2.4749999 -0.28099999 4
5.1199999 2.608 -0.205 4
5.4380002 2.773 -0.123 4
5.8959999 3.0090001 -0.029999999 1
6.302 3.2219999 0.078000002 2
4.6199999 2.402 -0.354 4
4.8470001 2.5179999 -0.285 4
5.112 2.6570001 -0.20999999 4
5.4419999 2.8299999 -0.127 1
5.895 3.0680001 -0.034000002 2
0 0 0 50
4.6090002 2.4430001 -0.35699999 6
4.8260002 2.5569999 -0.28799999 6
5.1090002 2.707 -0.214 4
5.4380002 2.882 -0.132 1
5.9060001 3.1340001 -0.039000001 2
6.1960001 3.293 0.068000004 2
4.6079998 2.4909999 -0.36199999 6
4.8309999 2.609 -0.294 5
5.112 2.7609999 -0.219 4
5.4390001 2.938 -0.13600001 1
5.901 3.191 -0.043000001 2
6.152 3.3310001 0.063000001 1
4.5949998 2.5309999 -0.36700001 6
4.8189998 2.652 -0.29699999 6
