# .PCD v0.7 - Point Cloud Data file format
VERSION 0.7
FIELDS x y z intensity
SIZE 4 4 4 4
TYPE F F F F
COUNT 1 1 1 1
WIDTH 1629
HEIGHT 1
VIEWPOINT 0 0 0 1 0 0 0
POINTS 1629
DATA ascii
3.8840001 0.189 -0.46900001 5
4.033 0.19 -0.42300001 5
4.2160001 0.193 -0.37599999 6
4.3990002 0.19400001 -0.324 6
3.6359999 0.15800001 -0.55500001 4
0 0 0 50
3.8959999 0.15700001 -0.47099999 5
4.0380001 0.15700001 -0.42399999 5
4.198 0.15700001 -0.375 5
4.3899999 0.15800001 -0.324 7
3.6329999 0.12800001 -0.55500001 5
3.763 0.127 -0.51499999 5
3.8770001 0.125 -0.46900001 5
4.0489998 0.124 -0.426 6
4.2150002 0.123 -0.377 6
4.3899999 0.122 -0.324 8
3.625 0.097999997 -0.55400002 5
3.7449999 0.096000001 -0.51300001 5
3.888 0.093000002 -0.47 5
4.0430002 0.090999998 -0.42500001 6
4.1950002 0.088 -0.37599999 5
4.3720002 0.085000001 -0.32300001 7
0 0 0 50
3.7490001 0.064999998 -0.51300001 5
3.908 0.061999999 -0.47299999 5
4.0450001 0.057999998 -0.426 7
4.1830001 0.054000001 -0.375 5
4.3769999 0.050000001 -0.324 8
3.6270001 0.039000001 -0.55500001 5
3.744 0.035 -0.51300001 5
3.898 0.030999999 -0.472 5
4.046 0.026000001 -0.426 6
4.1849999 0.02 -0.375 5
4.3660002 0.015 -0.324 8
3.6229999 0.0099999998 -0.55400002 5
3.743 0.0049999999 -0.51300001 5
3.8889999 0 -0.47099999 5
4.0300002 -0.0060000001 -0.42500001 5
4.2020001 -0.013 -0.377 7
0 0 0 50
3.619 -0.017999999 -0.55400002 5
3.737 -0.024 -0.51200002 5
3.8900001 -0.030999999 -0.472 6
4.04 -0.039000001 -0.426 7
4.1900001 -0.046 -0.37599999 6
4.3720002 -0.055 -0.32499999 8
3.6170001 -0.046999998 -0.55400002 6
3.7449999 -0.054000001 -0.514 5
3.8740001 -0.061999999 -0.47 5
4.0339999 -0.071000002 -0.426 6
4.1859999 -0.079999998 -0.37599999 6
4.3629999 -0.090000004 -0.324 8
3.6110001 -0.075999998 -0.55299997 6
3.7409999 -0.083999999 -0.51300001 5
3.8759999 -0.093000002 -0.47 5
4.0180001 -0.103 -0.42399999 7
4.1859999 -0.113 -0.37599999 7
0 0 0 50
3.6040001 -0.105 -0.55199999 5
3.724 -0.114 -0.51099998 5
3.8740001 -0.124 -0.47 6
3.997 -0.134 -0.42199999 5
4.1750002 -0.147 -0.375 7
4.3499999 -0.15899999 -0.32300001 8
3.6059999 -0.133 -0.55299997 5
3.727 -0.14300001 -0.51200002 5
3.8859999 -0.155 -0.472 6
4.0219998 -0.167 -0.42500001 6
4.1690001 -0.17900001 -0.375 7
4.3509998 -0.19400001 -0.324 8
3.602 -0.161 -0.55299997 5
3.73 -0.17299999 -0.51300001 6
3.855 -0.184 -0.46900001 5
4.0149999 -0.198 -0.42500001 6
0 0 0 50
4.3439999 -0.228 -0.32300001 8
3.5940001 -0.189 -0.55199999 6
3.7160001 -0.20100001 -0.51099998 5
3.836 -0.213 -0.46599999 5
4.0170002 -0.229 -0.42500001 7
4.1760001 -0.245 -0.37599999 7
4.3410001 -0.26199999 -0.32300001 8
3.6010001 -0.21799999 -0.55299997 5
3.7179999 -0.23 -0.51200002 5
3.869 -0.245 -0.47099999 6
4.006 -0.25999999 -0.42399999 6
4.158 -0.27599999 -0.375 7
4.3439999 -0.296 -0.324 8
3.592 -0.245 -0.55199999 6
3.7219999 -0.259 -0.51200002 5
3.845 -0.27399999 -0.46799999 5
3.997 -0.28999999 -0.42300001 6
0 0 0 50
4.3330002 -0.32800001 -0.32300001 8
3.592 -0.273 -0.55199999 5
3.7079999 -0.287 -0.51099998 5
3.852 -0.30399999 -0.46900001 5
4.006 -0.322 -0.42500001 6
4.171 -0.34200001 -0.377 6
4.3340001 -0.36199999 -0.324 8
3.582 -0.30000001 -0.551 5
3.698 -0.315 -0.50999999 5
3.8429999 -0.333 -0.46900001 6
4.0100002 -0.35299999 -0.426 6
4.158 -0.373 -0.37599999 7
4.3210001 -0.39399999 -0.32300001 7
3.572 -0.32600001 -0.55000001 6
3.6960001 -0.34299999 -0.50999999 5
3.8469999 -0.36199999 -0.46900001 6
3.9749999 -0.38 -0.42199999 6
4.1500001 -0.40400001 -0.375 6
4.3150001 -0.42699999 -0.32300001 8
3.5780001 -0.354 -0.55199999 5
3.691 -0.37 -0.50999999 5
0 0 0 50
3.9719999 -0.41 -0.42199999 6
4.1360002 -0.43399999 -0.37400001 7
4.2989998 -0.45699999 -0.322 8
3.575 -0.38100001 -0.55199999 6
3.6860001 -0.398 -0.50999999 5
3.839 -0.41999999 -0.47 6
3.99 -0.442 -0.42500001 6
4.131 -0.46399999 -0.37400001 7
4.2940001 -0.49000001 -0.322 6
3.5699999 -0.40700001 -0.55199999 5
3.6800001 -0.42500001 -0.509 5
3.835 -0.44800001 -0.47 6
3.971 -0.47 -0.42300001 6
4.1430001 -0.49700001 -0.37599999 7
4.3049998 -0.523 -0.32300001 8
3.5680001 -0.43399999 -0.55199999 5
3.6830001 -0.45300001 -0.50999999 5
3.832 -0.477 -0.47 6
0 0 0 50
4.1269999 -0.52600002 -0.375 6
4.2969999 -0.55400002 -0.32300001 8
3.5599999 -0.45899999 -0.551 5
3.6789999 -0.479 -0.51099998 6
3.823 -0.50400001 -0.46900001 6
3.971 -0.52899998 -0.42500001 7
4.1240001 -0.55599999 -0.37599999 7
4.29 -0.58499998 -0.32300001 8
3.5539999 -0.48500001 -0.551 5
3.675 -0.50599998 -0.51099998 5
0 0 0 0
3.96 -0.55699998 -0.42399999 6
4.125 -0.58600003 -0.377 7
4.289 -0.616 -0.324 8
3.5510001 -0.50999999 -0.55199999 5
3.6760001 -0.53299999 -0.51200002 7
3.7909999 -0.55500001 -0.46700001 5
3.954 -0.58499998 -0.42399999 7
4.1149998 -0.61500001 -0.37599999 7
0 0 0 50
3.549 -0.53600001 -0.55199999 6
3.6670001 -0.55800003 -0.51200002 5
3.825 -0.588 -0.472 6
3.951 -0.61199999 -0.42500001 7
4.1110001 -0.64399999 -0.377 8
4.2800002 -0.67699999 -0.32499999 8
3.5439999 -0.56 -0.55299997 5
3.6600001 -0.58399999 -0.51200002 6
3.809 -0.61199999 -0.47099999 7
3.9579999 -0.64200002 -0.42699999 6
4.105 -0.67199999 -0.377 8
4.2589998 -0.704 -0.32499999 8
0 0 0 50
3.668 -0.611 -0.514 7
3.8039999 -0.639 -0.472 7
3.9590001 -0.67000002 -0.428 6
4.0999999 -0.69999999 -0.37799999 8
4.2579999 -0.73299998 -0.32600001 8
3.5250001 -0.60799998 -0.55199999 6
3.655 -0.634 -0.51300001 6
3.796 -0.66399997 -0.472 7
3.9360001 -0.69300002 -0.42699999 7
4.0929999 -0.727 -0.37900001 7
4.2509999 -0.76200002 -0.32600001 8
3.5239999 -0.63200003 -0.55299997 6
3.6429999 -0.65799999 -0.51300001 6
3.7780001 -0.68699998 -0.47099999 7
3.9260001 -0.71899998 -0.42699999 8
4.085 -0.75400001 -0.37900001 8
4.2509999 -0.79100001 -0.32800001 8
3.5090001 -0.65399998 -0.55199999 6
3.6300001 -0.68099999 -0.51300001 6
3.7869999 -0.71499997 -0.47400001 7
0 0 0 50
4.0799999 -0.78100002 -0.38 8
4.2379999 -0.81800002 -0.32800001 9
3.5079999 -0.67799997 -0.55400002 6
3.6340001 -0.70599997 -0.51499999 6
3.7739999 -0.73799998 -0.47400001 7
3.915 -0.77100003 -0.42899999 7
4.086 -0.81 -0.382 8
4.2290001 -0.84500003 -0.329 10
3.51 -0.70200002 -0.55599999 6
3.6329999 -0.73100001 -0.51599997 6
3.7650001 -0.76200002 -0.47400001 6
3.9200001 -0.79799998 -0.43099999 8
4.0700002 -0.83399999 -0.38299999 8
4.2270002 -0.87199998 -0.33000001 8
3.506 -0.72500002 -0.55699998 6
3.625 -0.75300002 -0.51700002 6
3.777 -0.78899997 -0.47799999 7
3.904 -0.82099998 -0.43099999 7
0 0 0 50
4.2270002 -0.89999998 -0.33199999 9
3.4979999 -0.74599999 -0.55800003 6
3.625 -0.77700001 -0.51899999 6
3.7620001 -0.81099999 -0.47799999 7
3.905 -0.84600002 -0.433 7
4.059 -0.88499999 -0.38499999 8
4.2179999 -0.926 -0.33399999 9
3.493 -0.76800001 -0.55900002 5
3.608 -0.79699999 -0.51800001 6
3.7550001 -0.83399999 -0.479 7
3.8959999 -0.86900002 -0.43399999 7
4.0469999 -0.90799999 -0.38600001 8
4.21 -0.95099998 -0.33500001 9
3.483 -0.78799999 -0.55900002 6
3.608 -0.81999999 -0.51999998 6
3.7539999 -0.85699999 -0.48100001 6
3.8659999 -0.88700002 -0.433 6
4.039 -0.93199998 -0.38800001 8
4.1950002 -0.97399998 -0.336 9
3.4860001 -0.81099999 -0.56199998 6
3.5910001 -0.83899999 -0.51999998 6
3.7309999 -0.87599999 -0.47999999 6
3.8789999 -0.91500002 -0.43700001 7
4.0229998 -0.954 -0.38800001 8
4.1900001 -0.99900001 -0.338 9
3.474 -0.82999998 -0.56199998 6
3.5929999 -0.86199999 -0.523 6
0 0 0 50
3.862 -0.93400002 -0.43700001 7
4.0209999 -0.97799999 -0.391 8
4.1859999 -1.023 -0.34 9
3.467 -0.85000002 -0.56300002 5
3.582 -0.88099998 -0.52399999 6
3.727 -0.92000002 -0.484 6
3.858 -0.95700002 -0.43900001 7
4.013 -1 -0.39300001 8
4.1739998 -1.045 -0.34200001 8
3.4660001 -0.87099999 -0.56599998 5
3.579 -0.90200001 -0.52600002 6
3.694 -0.93400002 -0.48300001 5
3.8369999 -0.97399998 -0.44 6
4.0019999 -1.021 -0.39399999 8
4.1620002 -1.066 -0.34400001 9
3.4530001 -0.88800001 -0.56699997 6
3.569 -0.92000002 -0.52700001 6
3.6900001 -0.95499998 -0.48500001 5
3.846 -0.99900001 -0.44299999 6
3.9920001 -1.041 -0.396 8
4.1539998 -1.089 -0.34599999 9
0 0 0 50
3.5610001 -0.93900001 -0.52899998 6
3.707 -0.98100001 -0.49000001 6
3.8410001 -1.02 -0.44600001 6
3.99 -1.063 -0.39899999 7
4.1469998 -1.11 -0.34900001 9
3.4430001 -0.92500001 -0.57099998 6
3.5539999 -0.95700002 -0.53100002 7
3.6919999 -0.99800003 -0.491 7
3.825 -1.0369999 -0.447 7
3.9630001 -1.0779999 -0.40000001 7
4.1350002 -1.13 -0.35100001 8
3.428 -0.94099998 -0.57099998 6
3.5469999 -0.97600001 -0.53299999 7
3.687 -1.017 -0.49399999 6
3.8210001 -1.057 -0.44999999 7
3.9679999 -1.101 -0.403 7
4.1339998 -1.152 -0.354 9
3.424 -0.958 -0.574 6
3.536 -0.99199998 -0.53500003 6
3.675 -1.033 -0.49599999 6
3.8139999 -1.075 -0.45300001 7
3.9590001 -1.12 -0.40599999 7
4.1129999 -1.1670001 -0.35600001 9
3.411 -0.97299999 -0.57499999 6
3.53 -1.0089999 -0.537 6
3.6700001 -1.051 -0.498 7
3.802 -1.092 -0.45500001 7
3.95 -1.137 -0.40900001 8
4.0999999 -1.184 -0.359 9
3.401 -0.98799998 -0.57700002 6
3.513 -1.022 -0.53799999 5
3.6210001 -1.056 -0.495 5
0 0 0 50
3.9330001 -1.152 -0.41100001 8
4.092 -1.202 -0.36199999 9
3.3959999 -1.0039999 -0.57999998 6
3.516 -1.04 -0.542 6
3.645 -1.081 -0.50199997 7
3.7850001 -1.124 -0.46000001 6
3.9189999 -1.1670001 -0.41299999 7
4.0760002 -1.217 -0.36399999 8
3.388 -1.018 -0.58200002 6
3.5050001 -1.054 -0.54400003 6
3.638 -1.096 -0.505 6
3.7739999 -1.1390001 -0.463 8
3.9130001 -1.183 -0.41600001 8
4.0560002 -1.23 -0.36700001 9
3.381 -1.0319999 -0.58399999 6
3.4890001 -1.066 -0.54500002 6
3.6329999 -1.1109999 -0.50800002 6
3.7609999 -1.152 -0.465 8
3.9000001 -1.197 -0.419 7
3.9920001 -1.228 -0.36500001 8
3.372 -1.045 -0.58700001 6
3.4760001 -1.0779999 -0.54699999 6
3.589 -1.114 -0.50599998 5
3.753 -1.166 -0.46799999 7
3.8940001 -1.212 -0.42300001 7
3.927 -1.225 -0.36300001 11
3.359 -1.056 -0.58899999 6
3.4760001 -1.0930001 -0.551 6
3.6059999 -1.135 -0.51300001 6
0 0 0 50
3.8829999 -1.225 -0.426 7
3.8970001 -1.232 -0.36500001 15
3.3559999 -1.069 -0.59200001 6
3.457 -1.102 -0.55199999 6
3.5929999 -1.145 -0.51499999 6
3.7179999 -1.186 -0.472 6
3.8610001 -1.233 -0.428 7
3.8729999 -1.239 -0.36700001 16
3.3440001 -1.079 -0.59399998 6
3.45 -1.113 -0.55500001 6
3.546 -1.1440001 -0.51200002 5
3.7119999 -1.198 -0.47600001 6
3.848 -1.243 -0.43099999 8
3.8670001 -1.251 -0.37099999 16
3.3340001 -1.089 -0.59600002 6
3.4549999 -1.128 -0.56 6
3.536 -1.154 -0.51499999 5
3.7049999 -1.21 -0.479 7
3.842 -1.255 -0.435 7
3.859 -1.262 -0.37400001 16
3.326 -1.099 -0.59899998 6
3.434 -1.133 -0.56099999 6
3.5639999 -1.176 -0.52399999 6
3.6919999 -1.2180001 -0.48199999 6
0 0 0 50
3.852 -1.273 -0.37799999 16
3.3139999 -1.107 -0.60100001 6
3.4130001 -1.138 -0.56199998 6
3.549 -1.183 -0.52600002 6
3.668 -1.222 -0.48300001 6
3.822 -1.274 -0.44100001 7
3.8529999 -1.285 -0.38299999 15
3.3080001 -1.1160001 -0.60399997 6
3.411 -1.149 -0.56599998 5
3.5079999 -1.1799999 -0.52399999 5
3.6719999 -1.235 -0.48800001 6
3.8099999 -1.281 -0.44499999 7
3.8499999 -1.295 -0.38699999 13
3.2839999 -1.118 -0.60399997 5
3.4070001 -1.158 -0.56999999 6
3.5139999 -1.193 -0.52999997 5
3.645 -1.2359999 -0.48899999 6
3.7969999 -1.288 -0.44800001 7
3.8570001 -1.308 -0.39300001 12
3.2869999 -1.128 -0.60900003 6
0 0 0 50
3.52 -1.204 -0.53500003 6
3.661 -1.251 -0.49599999 7
3.777 -1.29 -0.44999999 6
3.8770001 -1.324 -0.39899999 11
3.273 -1.132 -0.611 6
3.3840001 -1.168 -0.57499999 6
3.5150001 -1.211 -0.53899997 6
3.6329999 -1.251 -0.49700001 6
3.767 -1.296 -0.454 7
3.885 -1.336 -0.405 11
3.2679999 -1.1390001 -0.61400002 6
3.378 -1.174 -0.57800001 6
3.4960001 -1.2130001 -0.54000002 6
3.6010001 -1.248 -0.49700001 6
3.763 -1.302 -0.458 8
3.8900001 -1.345 -0.41 10
3.257 -1.142 -0.61699998 6
3.348 -1.171 -0.57700002 5
3.4519999 -1.205 -0.53799999 5
3.609 -1.257 -0.50300002 7
3.7579999 -1.308 -0.46200001 7
3.891 -1.353 -0.41499999 9
3.2520001 -1.147 -0.62 6
0 0 0 50
3.48 -1.221 -0.54699999 6
3.602 -1.262 -0.50599998 6
3.7420001 -1.308 -0.46399999 7
3.8800001 -1.355 -0.419 9
3.24 -1.149 -0.62199998 6
3.3110001 -1.17 -0.57999998 5
3.47 -1.223 -0.55000001 6
3.589 -1.262 -0.509 6
3.7260001 -1.308 -0.46700001 7
3.8770001 -1.359 -0.42300001 8
3.2290001 -1.15 -0.62400001 6
3.3110001 -1.175 -0.58399999 5
3.46 -1.224 -0.55199999 6
3.586 -1.266 -0.51300001 7
3.714 -1.308 -0.47 6
3.8659999 -1.359 -0.42699999 8
3.2260001 -1.153 -0.62800002 6
3.289 -1.171 -0.58399999 4
3.451 -1.225 -0.55500001 6
3.5710001 -1.2640001 -0.51499999 6
3.711 -1.311 -0.47400001 7
0 0 0 50
3.2179999 -1.154 -0.63 6
3.279 -1.171 -0.58600003 4
3.447 -1.227 -0.55900002 6
3.5680001 -1.266 -0.51899999 7
3.691 -1.306 -0.47600001 7
3.8429999 -1.357 -0.433 8
3.2149999 -1.155 -0.63300002 6
3.286 -1.176 -0.59100002 5
3.4360001 -1.225 -0.56099999 6
3.5699999 -1.268 -0.523 6
3.688 -1.307 -0.47999999 7
3.8310001 -1.354 -0.43599999 8
3.2 -1.152 -0.634 6
3.296 -1.181 -0.59799999 5
3.411 -1.217 -0.56099999 5
3.54 -1.2589999 -0.523 7
0 0 0 50
3.8210001 -1.351 -0.43900001 8
3.1900001 -1.149 -0.63599998 6
3.2909999 -1.1799999 -0.60000002 5
3.4130001 -1.219 -0.565 6
3.5369999 -1.258 -0.52700001 7
3.6730001 -1.302 -0.486 7
3.8099999 -1.347 -0.442 8
3.181 -1.146 -0.63800001 6
3.289 -1.179 -0.60399997 5
3.4130001 -1.2180001 -0.56900001 6
3.5369999 -1.257 -0.52999997 7
3.6659999 -1.298 -0.48899999 7
3.8099999 -1.345 -0.44600001 8
3.1800001 -1.145 -0.64099997 6
3.2820001 -1.176 -0.60600001 5
3.4130001 -1.217 -0.57200003 6
3.523 -1.251 -0.53200001 7
3.6559999 -1.293 -0.49200001 7
3.796 -1.337 -0.44800001 8
3.1730001 -1.142 -0.64300001 6
3.2820001 -1.174 -0.60900003 5
0 0 0 50
3.5209999 -1.247 -0.53500003 7
3.648 -1.2869999 -0.49399999 7
3.786 -1.331 -0.45100001 9
3.1730001 -1.1390001 -0.64700001 6
3.257 -1.163 -0.60799998 5
3.3940001 -1.205 -0.57599998 6
3.506 -1.239 -0.53600001 6
3.6340001 -1.279 -0.49599999 8
3.7709999 -1.321 -0.45300001 9
3.1659999 -1.1339999 -0.648 6
3.2520001 -1.158 -0.61000001 5
3.382 -1.197 -0.57700002 6
3.4809999 -1.226 -0.53600001 5
3.635 -1.274 -0.49900001 7
3.767 -1.3150001 -0.45500001 8
3.155 -1.126 -0.64899999 5
3.257 -1.155 -0.61400002 5
3.3440001 -1.1799999 -0.574 5
3.493 -1.225 -0.54000002 6
3.625 -1.266 -0.50099999 6
3.7639999 -1.308 -0.458 8
3.1359999 -1.115 -0.648 5
3.256 -1.15 -0.61699998 6
3.3499999 -1.176 -0.57700002 5
3.48 -1.215 -0.54100001 6
3.6199999 -1.258 -0.50300002 6
0 0 0 50
3.138 -1.11 -0.65100002 4
3.2509999 -1.143 -0.61799997 5
3.3410001 -1.1670001 -0.579 5
3.483 -1.21 -0.54500002 6
3.6129999 -1.248 -0.505 6
3.7449999 -1.2869999 -0.46200001 8
3.1459999 -1.108 -0.65499997 5
3.2460001 -1.135 -0.62 5
3.3629999 -1.168 -0.58499998 5
3.483 -1.202 -0.54699999 5
3.605 -1.237 -0.50599998 6
3.743 -1.278 -0.46399999 8
3.141 -1.099 -0.65600002 5
3.2490001 -1.1289999 -0.62199998 5
3.3640001 -1.161 -0.58700001 6
3.4820001 -1.194 -0.54900002 6
3.6110001 -1.2309999 -0.509 6
3.7379999 -1.267 -0.46599999 8
3.1359999 -1.09 -0.65700001 6
3.243 -1.119 -0.62300003 6
3.3640001 -1.152 -0.58899999 6
0 0 0 50
3.595 -1.216 -0.509 7
3.7360001 -1.256 -0.46799999 8
3.1300001 -1.08 -0.65700001 6
3.2360001 -1.108 -0.62400001 6
3.355 -1.14 -0.58999997 6
3.4679999 -1.17 -0.551 6
3.6010001 -1.207 -0.51200002 6
3.7290001 -1.243 -0.46900001 8
3.1340001 -1.072 -0.66000003 5
3.2409999 -1.1 -0.62599999 6
3.3570001 -1.131 -0.59200001 6
3.4690001 -1.16 -0.55299997 6
3.6029999 -1.197 -0.514 7
3.7249999 -1.23 -0.47 8
3.1289999 -1.061 -0.66000003 6
3.2390001 -1.089 -0.62800002 6
3.3510001 -1.119 -0.59200001 6
3.4649999 -1.148 -0.55400002 6
3.5969999 -1.184 -0.51499999 7
3.7219999 -1.217 -0.47099999 8
0 0 0 50
3.234 -1.077 -0.62800002 5
3.3510001 -1.108 -0.59299999 6
3.4619999 -1.135 -0.55400002 6
3.5880001 -1.168 -0.51499999 6
3.7309999 -1.207 -0.47400001 8
3.1329999 -1.0420001 -0.66299999 5
3.234 -1.066 -0.62900001 6
3.348 -1.095 -0.59399998 6
3.4549999 -1.1210001 -0.55500001 6
3.5599999 -1.146 -0.51200002 5
3.7279999 -1.192 -0.47499999 7
3.1259999 -1.028 -0.66299999 6
3.23 -1.053 -0.62900001 6
3.3510001 -1.0829999 -0.59500003 6
3.4779999 -1.115 -0.55900002 6
3.586 -1.141 -0.51599997 7
3.7219999 -1.176 -0.47499999 7
3.1240001 -1.015 -0.66299999 5
3.2290001 -1.04 -0.62900001 5
3.3510001 -1.0700001 -0.59600002 5
3.4749999 -1.1 -0.55900002 7
3.5910001 -1.128 -0.51800001 7
3.7160001 -1.159 -0.47499999 9
0 0 0 50
3.2249999 -1.026 -0.62900001 5
3.352 -1.056 -0.59600002 6
3.4679999 -1.084 -0.55900002 6
3.5899999 -1.113 -0.51800001 6
3.723 -1.145 -0.47600001 10
3.131 -0.99199998 -0.66500002 5
3.2360001 -1.015 -0.63099998 6
3.3540001 -1.0420001 -0.597 6
3.47 -1.069 -0.55900002 6
3.5899999 -1.097 -0.51899999 7
3.7249999 -1.1289999 -0.477 11
3.128 -0.977 -0.66500002 5
3.224 -0.99699998 -0.62900001 5
3.3540001 -1.027 -0.597 6
3.47 -1.054 -0.55900002 7
3.5869999 -1.08 -0.51800001 7
3.7190001 -1.11 -0.47600001 9
3.135 -0.96499997 -0.66600001 6
3.2349999 -0.98500001 -0.63099998 6
3.3570001 -1.013 -0.59799999 6
0 0 0 50
3.589 -1.063 -0.51899999 7
3.727 -1.095 -0.477 7
3.131 -0.949 -0.66500002 6
3.237 -0.97100002 -0.63099998 5
3.3469999 -0.99400002 -0.59600002 6
3.4679999 -1.02 -0.55900002 6
3.598 -1.048 -0.51999998 7
3.73 -1.0779999 -0.477 9
3.1389999 -0.935 -0.66600001 5
3.2379999 -0.95499998 -0.63099998 6
3.358 -0.98000002 -0.597 6
3.4809999 -1.006 -0.56 7
3.5999999 -1.031 -0.51899999 7
3.7279999 -1.058 -0.477 8
3.1370001 -0.91900003 -0.66500002 6
3.2379999 -0.93800002 -0.63 6
3.359 -0.96399999 -0.597 6
3.483 -0.98900002 -0.56 6
3.605 -1.0140001 -0.51999998 7
3.73 -1.04 -0.47600001 8
3.141 -0.90399998 -0.66500002 6
3.237 -0.921 -0.63 6
3.3570001 -0.94499999 -0.59600002 6
3.4809999 -0.97000003 -0.55900002 6
3.598 -0.99299997 -0.51800001 6
3.7309999 -1.02 -0.47600001 8
3.1489999 -0.889 -0.66600001 5
3.2449999 -0.90600002 -0.63 5
3.369 -0.93000001 -0.597 6
3.484 -0.95200002 -0.55900002 8
3.6099999 -0.977 -0.51899999 6
3.743 -1.003 -0.477 7
3.145 -0.87099999 -0.66399997 6
3.2490001 -0.889 -0.63 5
3.3629999 -0.91000003 -0.59500003 6
0 0 0 50
3.6199999 -0.95899999 -0.51899999 7
3.7479999 -0.98400003 -0.47600001 7
3.1530001 -0.85500002 -0.66399997 6
3.26 -0.87400001 -0.63099998 5
3.375 -0.89399999 -0.59600002 6
3.4920001 -0.91500002 -0.55699998 6
3.6210001 -0.93900001 -0.51800001 6
3.747 -0.96200001 -0.47499999 7
3.148 -0.83499998 -0.662 8
3.253 -0.85299999 -0.62800002 5
3.381 -0.87599999 -0.59500003 6
3.4990001 -0.89700001 -0.55800003 6
3.6289999 -0.92000002 -0.51800001 7
3.7539999 -0.94199997 -0.47400001 7
3.1589999 -0.81999999 -0.66299999 7
3.2520001 -0.83399999 -0.62599999 8
3.3829999 -0.85699999 -0.59399998 5
3.4990001 -0.87599999 -0.55599999 6
3.6300001 -0.89899999 -0.51599997 6
3.7720001 -0.92400002 -0.47499999 7
3.164 -0.80199999 -0.662 6
3.267 -0.81699997 -0.62699997 5
3.378 -0.83499998 -0.59100002 6
3.507 -0.85699999 -0.55500001 6
3.6329999 -0.87800002 -0.51499999 6
3.763 -0.89899999 -0.472 7
3.174 -0.78500003 -0.662 6
3.267 -0.79799998 -0.625 6
3.3900001 -0.81800002 -0.59200001 6
3.506 -0.83499998 -0.55299997 6
3.635 -0.85600001 -0.514 6
0 0 0 50
3.174 -0.76499999 -0.66000003 5
3.2739999 -0.77899998 -0.625 6
3.392 -0.79699999 -0.58999997 6
3.5209999 -0.81699997 -0.55400002 7
3.6570001 -0.838 -0.51499999 7
3.783 -0.85699999 -0.47099999 7
3.177 -0.745 -0.65899998 5
3.283 -0.75999999 -0.625 6
3.4059999 -0.778 -0.59100002 6
3.5209999 -0.79500002 -0.55199999 6
3.651 -0.81400001 -0.51200002 7
3.7850001 -0.83399999 -0.47 7
3.1860001 -0.727 -0.65899998 6
3.2939999 -0.741 -0.625 5
3.408 -0.75700003 -0.58899999 6
3.5250001 -0.773 -0.551 5
3.6570001 -0.792 -0.51099998 7
3.7909999 -0.81099999 -0.46799999 9
3.1849999 -0.70599997 -0.65600002 7
3.286 -0.71799999 -0.62099999 6
3.427 -0.73900002 -0.58999997 6
3.526 -0.75 -0.54900002 6
3.6730001 -0.77100003 -0.51099998 7
0 0 0 50
3.1930001 -0.68699998 -0.65600002 7
3.3 -0.69999999 -0.62199998 5
3.4159999 -0.71399999 -0.58600003 6
3.546 -0.73100001 -0.55000001 6
3.6689999 -0.74699998 -0.509 7
3.8099999 -0.76599997 -0.46599999 7
3.1900001 -0.66500002 -0.653 8
3.3010001 -0.67799997 -0.61900002 5
3.427 -0.69400001 -0.58600003 6
3.556 -0.70999998 -0.54900002 7
3.6819999 -0.72500002 -0.50800002 7
3.8139999 -0.741 -0.465 8
3.207 -0.64600003 -0.65399998 7
3.322 -0.65899998 -0.62099999 5
3.4389999 -0.67299998 -0.58499998 6
3.5639999 -0.68699998 -0.54799998 6
3.6860001 -0.70099998 -0.50599998 7
3.826 -0.71799999 -0.46399999 7
3.207 -0.62400001 -0.65100002 8
3.3199999 -0.63599998 -0.61799997 6
3.451 -0.65200001 -0.58499998 5
3.569 -0.66399997 -0.546 6
3.7019999 -0.67900002 -0.50599998 6
3.829 -0.69199997 -0.46200001 7
3.2249999 -0.60500002 -0.65200001 5
3.3269999 -0.61500001 -0.61699998 6
3.4530001 -0.62800002 -0.583 6
3.585 -0.64200002 -0.546 6
3.71 -0.65499997 -0.505 6
3.839 -0.66799998 -0.46000001 8
0 0 0 50
3.3410001 -0.59399998 -0.61699998 6
3.4590001 -0.60500002 -0.58099997 5
3.5780001 -0.616 -0.54299998 6
3.71 -0.62900001 -0.50199997 7
3.848 -0.64300001 -0.45899999 8
3.23 -0.56099999 -0.648 7
3.346 -0.57200003 -0.616 5
3.4679999 -0.583 -0.57999998 5
3.586 -0.59299999 -0.54100001 5
3.7179999 -0.60500002 -0.50099999 6
3.8529999 -0.61699998 -0.45699999 7
3.2449999 -0.54000002 -0.64899999 7
3.349 -0.54799998 -0.61299998 7
3.4809999 -0.56 -0.57999998 5
3.605 -0.57099998 -0.542 6
3.7260001 -0.57999998 -0.49900001 6
3.8610001 -0.59200001 -0.456 9
3.2509999 -0.51800001 -0.64700001 7
3.3559999 -0.52600002 -0.61199999 5
3.49 -0.537 -0.579 5
3.615 -0.54699999 -0.54100001 6
3.7349999 -0.55500001 -0.498 6
3.872 -0.56599998 -0.454 7
3.2550001 -0.495 -0.64600003 7
3.3670001 -0.50300002 -0.61199999 5
3.4909999 -0.51200002 -0.57700002 5
3.618 -0.52200001 -0.53899997 6
3.743 -0.52999997 -0.49700001 6
3.881 -0.54000002 -0.45300001 7
3.2590001 -0.472 -0.64399999 7
3.375 -0.47999999 -0.611 5
3.5 -0.48800001 -0.57599998 5
3.631 -0.49700001 -0.53799999 6
3.75 -0.50400001 -0.495 6
3.898 -0.514 -0.45199999 6
3.2679999 -0.44999999 -0.64300001 6
3.3740001 -0.45500001 -0.60799998 7
3.497 -0.46200001 -0.57200003 6
3.625 -0.47 -0.53500003 6
3.7650001 -0.479 -0.495 6
3.9059999 -0.48800001 -0.45100001 7
3.28 -0.42699999 -0.64300001 6
3.3900001 -0.43200001 -0.60799998 5
3.5190001 -0.43900001 -0.574 5
3.6440001 -0.44600001 -0.53500003 6
3.773 -0.45199999 -0.493 6
3.9119999 -0.46000001 -0.449 6
3.279 -0.403 -0.63999999 7
3.3940001 -0.40799999 -0.60600001 5
3.4990001 -0.41100001 -0.56800002 5
0 0 0 50
3.783 -0.426 -0.49200001 6
3.914 -0.43200001 -0.447 7
3.2880001 -0.37900001 -0.639 7
3.3959999 -0.38299999 -0.60399997 6
3.52 -0.38800001 -0.56900001 6
3.6559999 -0.39399999 -0.53200001 6
3.779 -0.398 -0.48899999 6
3.927 -0.405 -0.44600001 7
3.299 -0.35600001 -0.639 6
3.4100001 -0.359 -0.60399997 6
3.539 -0.36399999 -0.56999999 6
3.6670001 -0.368 -0.53100002 6
3.8039999 -0.373 -0.49000001 6
3.937 -0.377 -0.44499999 7
3.299 -0.331 -0.63700002 8
3.415 -0.33399999 -0.60299999 6
3.539 -0.33700001 -0.56699997 6
3.664 -0.34099999 -0.528 5
3.806 -0.345 -0.48800001 7
3.9489999 -0.34900001 -0.44400001 7
3.309 -0.30700001 -0.63599998 10
3.425 -0.30899999 -0.602 6
3.5439999 -0.31099999 -0.56599998 6
3.6730001 -0.31400001 -0.52700001 6
3.816 -0.31799999 -0.48699999 6
3.957 -0.31999999 -0.442 7
3.322 -0.28299999 -0.63700002 7
3.434 -0.28400001 -0.602 5
3.5569999 -0.285 -0.56599998 6
3.684 -0.287 -0.52600002 6
3.8299999 -0.28999999 -0.486 6
3.9630001 -0.29100001 -0.44100001 7
3.3280001 -0.257 -0.63599998 5
3.4349999 -0.257 -0.60000002 6
3.5450001 -0.25799999 -0.56099999 5
3.694 -0.25999999 -0.52600002 5
3.839 -0.26199999 -0.48500001 6
3.9749999 -0.26199999 -0.44 7
3.3280001 -0.23199999 -0.63300002 8
3.4460001 -0.23199999 -0.59899998 5
3.575 -0.23199999 -0.56400001 5
3.6930001 -0.23199999 -0.523 6
3.829 -0.23199999 -0.48199999 6
3.9809999 -0.23199999 -0.43799999 7
3.342 -0.207 -0.634 6
3.464 -0.206 -0.60000002 5
3.5910001 -0.206 -0.56400001 6
3.701 -0.204 -0.523 6
3.8440001 -0.20299999 -0.48199999 6
3.9920001 -0.20299999 -0.43799999 7
3.342 -0.18000001 -0.63200003 9
3.4649999 -0.17900001 -0.59899998 8
3.582 -0.178 -0.56099999 6
3.7219999 -0.176 -0.52399999 6
3.8570001 -0.175 -0.48100001 6
4.0019999 -0.17200001 -0.43700001 7
3.358 -0.155 -0.63300002 6
3.4630001 -0.152 -0.597 6
0 0 0 50
3.7190001 -0.148 -0.52100003 5
3.813 -0.14300001 -0.47400001 5
4.0190001 -0.14300001 -0.43700001 6
3.3670001 -0.12899999 -0.63300002 5
3.483 -0.126 -0.59799999 5
3.602 -0.123 -0.56099999 5
3.727 -0.119 -0.52100003 6
3.859 -0.116 -0.47799999 6
4.0139999 -0.112 -0.435 7
3.3670001 -0.103 -0.63099998 6
3.4809999 -0.098999999 -0.59600002 5
3.6070001 -0.094999999 -0.56 5
3.7219999 -0.090000004 -0.51800001 5
3.8800001 -0.086000003 -0.479 5
4.0190001 -0.081 -0.433 6
3.378 -0.075999998 -0.63200003 5
3.4890001 -0.071999997 -0.59600002 5
3.615 -0.067000002 -0.56 5
3.7420001 -0.061000001 -0.51999998 5
3.885 -0.056000002 -0.47799999 6
4.0240002 -0.050000001 -0.43200001 7
3.378 -0.048999999 -0.63 5
3.49 -0.044 -0.59500003 8
3.6270001 -0.039000001 -0.56 5
3.744 -0.033 -0.51800001 5
3.8800001 -0.026000001 -0.47600001 6
4.0370002 -0.018999999 -0.433 6
3.3840001 -0.023 -0.63 5
3.4979999 -0.017000001 -0.59500003 5
3.6300001 -0.0099999998 -0.55900002 5
3.7490001 -0.003 -0.51800001 5
3.901 0.003 -0.47799999 6
4.039 0.011 -0.43099999 6
3.3859999 0.003 -0.62900001 5
3.4990001 0.0099999998 -0.59399998 5
3.6270001 0.017000001 -0.55699998 6
3.76 0.025 -0.51800001 6
3.905 0.033 -0.477 5
4.0440001 0.041999999 -0.43099999 6
3.3929999 0.029999999 -0.63 5
3.5050001 0.037999999 -0.59399998 5
3.6389999 0.046 -0.55800003 5
0 0 0 50
3.9119999 0.064000003 -0.477 6
4.052 0.074000001 -0.43000001 7
3.3959999 0.057999998 -0.62900001 6
3.5179999 0.066 -0.59500003 5
3.6370001 0.075000003 -0.55699998 5
3.773 0.085000001 -0.51800001 6
3.9119999 0.094999999 -0.47600001 5
4.0650001 0.106 -0.43099999 6
3.3970001 0.085000001 -0.62800002 5
3.52 0.094999999 -0.59500003 5
3.632 0.104 -0.55500001 5
3.74 0.114 -0.51300001 4
3.921 0.126 -0.47600001 5
4.0669999 0.138 -0.43000001 6
3.4070001 0.113 -0.63 5
3.5139999 0.122 -0.59299999 5
3.648 0.134 -0.55699998 5
3.7839999 0.145 -0.51800001 6
3.9189999 0.15700001 -0.47499999 5
4.0760002 0.171 -0.43099999 6
3.4130001 0.141 -0.63 5
3.5090001 0.15099999 -0.59100002 4
3.6059999 0.161 -0.55000001 4
3.766 0.175 -0.51499999 5
3.924 0.189 -0.47499999 5
4.085 0.20299999 -0.43099999 6
3.4130001 0.168 -0.63 5
3.523 0.18000001 -0.59299999 5
3.628 0.191 -0.55299997 4
3.7920001 0.206 -0.51800001 5
3.911 0.219 -0.47299999 5
4.0840001 0.236 -0.43099999 6
3.421 0.197 -0.63099998 6
3.5280001 0.20900001 -0.59399998 5
3.6570001 0.222 -0.55800003 5
3.7950001 0.237 -0.51899999 5
3.937 0.252 -0.47600001 6
4.0879998 0.26800001 -0.43099999 6
3.4200001 0.22499999 -0.63099998 5
3.529 0.237 -0.59399998 5
0 0 0 50
3.786 0.266 -0.51700002 5
3.941 0.28400001 -0.47600001 6
4.085 0.301 -0.43000001 6
3.4200001 0.25299999 -0.63099998 5
3.536 0.26699999 -0.59500003 5
3.6440001 0.28 -0.55500001 5
3.7720001 0.296 -0.51499999 5
3.9419999 0.31600001 -0.477 5
4.098 0.33500001 -0.43200001 6
3.427 0.28200001 -0.63200003 5
3.5280001 0.29499999 -0.59399998 5
3.648 0.31099999 -0.55599999 5
3.7939999 0.329 -0.51899999 5
3.927 0.34599999 -0.47499999 5
4.1040001 0.36899999 -0.433 6
3.4260001 0.31 -0.63200003 5
3.543 0.32600001 -0.597 5
3.674 0.34299999 -0.56099999 5
3.8010001 0.36000001 -0.51999998 5
3.9260001 0.37799999 -0.47499999 5
4.0970001 0.40099999 -0.43200001 6
3.424 0.33899999 -0.63300002 5
3.54 0.35499999 -0.597 5
3.6719999 0.373 -0.56099999 5
3.8050001 0.39199999 -0.52100003 6
3.954 0.41299999 -0.479 5
4.099 0.43399999 -0.433 6
3.425 0.36700001 -0.634 5
3.5409999 0.384 -0.59799999 6
3.6659999 0.403 -0.56099999 5
3.8069999 0.42300001 -0.52200001 5
0 0 0 50
4.1090002 0.46900001 -0.435 6
3.4230001 0.396 -0.634 5
3.5439999 0.414 -0.59899998 5
3.671 0.43399999 -0.56199998 5
3.796 0.454 -0.52100003 5
3.9530001 0.47799999 -0.48100001 6
4.1040001 0.50199997 -0.435 6
3.427 0.42500001 -0.63599998 5
3.5420001 0.44400001 -0.60000002 5
3.6530001 0.46200001 -0.56 5
3.8110001 0.48699999 -0.52399999 6
3.944 0.509 -0.48100001 5
4.1129999 0.537 -0.43700001 6
3.4300001 0.454 -0.63800001 4
3.5480001 0.47400001 -0.602 5
3.6489999 0.49200001 -0.56099999 5
3.813 0.51899999 -0.52600002 6
3.9579999 0.54400003 -0.484 5
4.1170001 0.57099998 -0.43900001 6
3.428 0.48300001 -0.639 5
3.5450001 0.50300002 -0.60299999 5
3.6819999 0.52700001 -0.56699997 6
3.8110001 0.55000001 -0.52700001 5
3.944 0.574 -0.48300001 5
4.1079998 0.60399997 -0.43900001 6
0 0 0 50
3.536 0.53200001 -0.60299999 4
3.6429999 0.55199999 -0.56300002 4
3.812 0.58200002 -0.528 6
3.951 0.60799998 -0.48500001 5
4.1030002 0.63700002 -0.44 6
3.424 0.54100001 -0.64099997 5
3.55 0.56400001 -0.60699999 5
3.6559999 0.58499998 -0.56599998 5
3.8080001 0.61299998 -0.52999997 6
3.961 0.64200002 -0.48800001 6
4.119 0.67299998 -0.44299999 7
3.4260001 0.56999999 -0.64300001 5
3.536 0.59200001 -0.60699999 5
3.6700001 0.61799997 -0.57099998 5
3.7850001 0.64099997 -0.528 5
3.947 0.67299998 -0.48800001 5
4.1040001 0.70499998 -0.44299999 5
3.4200001 0.59799999 -0.64399999 5
3.54 0.62300003 -0.60900003 5
3.671 0.64899999 -0.57300001 6
3.8050001 0.67699999 -0.53299999 5
0 0 0 50
4.1059999 0.73900002 -0.44499999 5
3.4219999 0.62800002 -0.64600003 5
3.5450001 0.65399998 -0.61199999 5
3.6719999 0.68099999 -0.57499999 6
0 0 0 0
3.9460001 0.73900002 -0.49200001 5
4.112 0.77499998 -0.44800001 6
3.4219999 0.65799999 -0.64899999 5
3.5339999 0.68199998 -0.61299998 5
3.665 0.70999998 -0.57599998 6
3.806 0.741 -0.537 6
3.9489999 0.773 -0.495 6
4.1030002 0.80800003 -0.449 7
3.4219999 0.68800002 -0.65100002 5
3.529 0.71200001 -0.61400002 5
3.6689999 0.74299997 -0.579 5
3.8010001 0.773 -0.53899997 6
3.9489999 0.80699998 -0.49700001 6
4.0999999 0.84200001 -0.45100001 7
3.4119999 0.71499997 -0.65200001 5
3.5250001 0.741 -0.616 4
3.638 0.76800001 -0.57700002 5
3.7980001 0.80500001 -0.54100001 6
3.925 0.83499998 -0.49700001 5
4.1079998 0.87800002 -0.45500001 6
3.4119999 0.745 -0.65499997 5
3.5209999 0.77100003 -0.61799997 5
3.664 0.80500001 -0.58399999 6
3.779 0.833 -0.54100001 5
3.9389999 0.87199998 -0.50099999 6
4.0910001 0.91000003 -0.456 6
3.4100001 0.77499998 -0.65700001 5
3.5209999 0.80199999 -0.62099999 5
3.6370001 0.83099997 -0.58200002 5
3.7980001 0.87 -0.54699999 6
3.925 0.903 -0.50199997 5
4.0960002 0.94599998 -0.45899999 6
3.4059999 0.80400002 -0.66000003 5
3.527 0.83399999 -0.625 5
3.652 0.866 -0.588 6
3.7880001 0.90100002 -0.54799998 6
3.927 0.93699998 -0.505 5
4.086 0.97799999 -0.461 6
3.402 0.833 -0.662 6
3.5090001 0.861 -0.625 5
3.648 0.89700001 -0.58999997 6
3.7850001 0.93300003 -0.551 5
3.924 0.97000003 -0.50800002 5
0 0 0 50
3.3970001 0.86199999 -0.66399997 5
3.5090001 0.89200002 -0.62800002 6
3.6240001 0.92299998 -0.58999997 5
3.7609999 0.95999998 -0.551 5
3.921 1.003 -0.51099998 6
4.0700002 1.045 -0.465 5
3.3870001 0.88999999 -0.66600001 5
3.5109999 0.92400002 -0.63200003 5
3.641 0.95899999 -0.59600002 5
3.7720001 0.99599999 -0.55599999 6
3.915 1.036 -0.514 7
4.0749998 1.081 -0.46900001 7
3.392 0.92199999 -0.671 7
3.497 0.95099998 -0.63300002 6
3.618 0.98500001 -0.59500003 6
3.74 1.02 -0.55400002 5
3.898 1.0650001 -0.51499999 6
4.052 1.11 -0.47 6
3.382 0.949 -0.67199999 7
3.4979999 0.98199999 -0.63700002 6
3.6340001 1.021 -0.602 7
3.7520001 1.056 -0.56 6
3.888 1.097 -0.51700002 6
4.0679998 1.15 -0.47600001 7
3.3740001 0.977 -0.67500001 6
3.494 1.012 -0.63999999 6
3.6210001 1.05 -0.60299999 6
3.7349999 1.084 -0.56099999 6
3.905 1.136 -0.523 6
4.0619998 1.184 -0.479 7
3.3699999 1.006 -0.67799997 7
3.471 1.0369999 -0.63999999 6
3.6210001 1.082 -0.60699999 6
3.756 1.124 -0.56800002 6
3.895 1.1670001 -0.52600002 6
4.0430002 1.214 -0.47999999 6
3.3670001 1.036 -0.68099999 6
3.4860001 1.073 -0.64700001 7
3.5899999 1.105 -0.60600001 5
3.7190001 1.146 -0.56599998 5
3.8929999 1.201 -0.52899998 6
4.0240002 1.243 -0.48199999 5
3.358 1.064 -0.68400002 7
3.493 1.1059999 -0.65200001 6
3.6059999 1.142 -0.61299998 6
3.7130001 1.177 -0.56999999 5
3.8859999 1.233 -0.53200001 6
4.0440001 1.285 -0.48800001 7
3.3529999 1.0930001 -0.68699998 8
3.4619999 1.127 -0.65100002 6
3.6010001 1.173 -0.616 7
3.723 1.2130001 -0.57499999 6
3.888 1.268 -0.537 6
4.0209999 1.313 -0.48899999 6
3.349 1.122 -0.69099998 7
3.4630001 1.16 -0.65499997 7
0 0 0 50
3.707 1.2410001 -0.57700002 6
3.848 1.289 -0.53500003 6
4.0009999 1.342 -0.491 5
3.3399999 1.15 -0.69300002 6
3.45 1.187 -0.65700001 7
3.5569999 1.223 -0.61699998 5
3.717 1.278 -0.583 7
3.848 1.324 -0.54000002 6
4.0240002 1.386 -0.498 7
3.3310001 1.178 -0.69599998 7
3.4430001 1.216 -0.66000003 7
3.585 1.266 -0.62699997 6
3.7130001 1.3099999 -0.58700001 7
3.8310001 1.352 -0.542 6
3.9849999 1.408 -0.498 5
3.3280001 1.207 -0.69999999 7
3.4360001 1.245 -0.66399997 6
3.5829999 1.2970001 -0.63099998 6
3.677 1.331 -0.58600003 5
3.8399999 1.39 -0.54699999 7
3.9879999 1.4450001 -0.50300002 6
3.3199999 1.235 -0.70300001 6
3.431 1.274 -0.667 6
3.5639999 1.322 -0.63200003 7
3.674 1.362 -0.58999997 6
3.8269999 1.419 -0.55000001 7
3.9779999 1.476 -0.50599998 5
3.313 1.263 -0.70700002 7
3.421 1.302 -0.67000002 6
3.562 1.354 -0.63700002 7
3.691 1.402 -0.597 6
3.825 1.4529999 -0.55400002 6
3.994 1.518 -0.51200002 7
3.309 1.2920001 -0.71100003 6
3.4159999 1.332 -0.67400002 7
3.54 1.378 -0.63800001 6
3.661 1.424 -0.597 5
3.8310001 1.49 -0.56 7
3.967 1.543 -0.51300001 6
3.2939999 1.317 -0.71200001 7
3.401 1.357 -0.676 6
3.5469999 1.413 -0.64399999 7
3.658 1.456 -0.60100001 6
3.79 1.508 -0.55800003 5
3.9590001 1.576 -0.51700002 6
3.2920001 1.347 -0.71700001 6
3.4059999 1.39 -0.68199998 6
3.5369999 1.442 -0.64700001 6
3.651 1.487 -0.60500002 6
3.79 1.5420001 -0.56300002 5
0 0 0 50
3.2820001 1.373 -0.72000003 6
3.395 1.4170001 -0.685 6
3.5250001 1.469 -0.64899999 7
3.6400001 1.515 -0.60799998 6
3.7909999 1.577 -0.56800002 6
3.9330001 1.636 -0.523 4
3.273 1.4 -0.72299999 7
3.3929999 1.448 -0.68900001 5
3.5090001 1.494 -0.65100002 6
3.6340001 1.546 -0.611 6
3.783 1.608 -0.57200003 7
3.9319999 1.67 -0.52700001 6
3.273 1.4299999 -0.72799999 7
3.378 1.473 -0.69099998 7
3.503 1.524 -0.65499997 7
3.6259999 1.576 -0.61500001 7
3.7679999 1.635 -0.574 6
3.9230001 1.702 -0.53100002 5
3.263 1.456 -0.73100001 7
3.3759999 1.503 -0.69599998 6
3.4890001 1.55 -0.65700001 7
3.618 1.605 -0.61799997 7
3.76 1.666 -0.57700002 6
3.9200001 1.7359999 -0.53500003 6
3.26 1.485 -0.73500001 7
3.362 1.528 -0.69800001 6
3.467 1.572 -0.65799999 6
3.6400001 1.647 -0.62699997 8
0 0 0 50
3.9119999 1.767 -0.53799999 7
3.2490001 1.51 -0.73799998 8
3.352 1.554 -0.70099998 6
3.47 1.605 -0.66299999 6
3.6070001 1.665 -0.62599999 7
3.7409999 1.725 -0.58399999 6
3.904 1.798 -0.542 6
3.2420001 1.5369999 -0.741 7
3.3699999 1.5930001 -0.70899999 7
3.454 1.6289999 -0.66500002 6
3.582 1.686 -0.62599999 6
3.7379999 1.756 -0.588 5
3.898 1.831 -0.546 5
3.237 1.564 -0.745 7
3.3429999 1.6109999 -0.70899999 8
3.464 1.665 -0.67199999 7
3.5910001 1.722 -0.63300002 7
3.7279999 1.785 -0.59100002 5
3.8970001 1.865 -0.55000001 5
3.2249999 1.589 -0.74800003 7
3.346 1.643 -0.71399999 7
3.4360001 1.682 -0.671 6
3.575 1.747 -0.634 5
3.724 1.817 -0.59500003 6
3.8770001 1.8890001 -0.55199999 5
3.2160001 1.613 -0.75 7
3.332 1.666 -0.71600002 7
3.4330001 1.712 -0.67500001 6
3.569 1.776 -0.63800001 6
3.7190001 1.847 -0.59899998 6
3.881 1.926 -0.55699998 6
3.211 1.64 -0.75400001 7
3.2980001 1.679 -0.71399999 6
3.447 1.75 -0.68300003 7
3.569 1.807 -0.64200002 7
3.7119999 1.876 -0.602 6
3.872 1.955 -0.56 5
3.198 1.663 -0.75599998 7
3.319 1.72 -0.72299999 7
3.4349999 1.774 -0.685 7
3.5599999 1.835 -0.64600003 6
3.707 1.9069999 -0.60600001 6
3.859 1.983 -0.56199998 4
3.194 1.6900001 -0.75999999 7
3.325 1.753 -0.72899997 7
3.4100001 1.7920001 -0.685 6
3.553 1.862 -0.648 6
3.6930001 1.931 -0.60799998 4
3.8710001 2.0220001 -0.56800002 4
3.1800001 1.711 -0.76099998 7
3.303 1.77 -0.72799999 7
3.402 1.818 -0.68699998 6
3.5469999 1.89 -0.65200001 7
3.6900001 1.962 -0.611 6
0 0 0 50
3.1830001 1.7410001 -0.76700002 7
3.2950001 1.795 -0.73100001 6
3.408 1.85 -0.69300002 7
3.539 1.916 -0.65399998 6
3.6849999 1.9910001 -0.61400002 5
3.8469999 2.075 -0.57300001 5
3.177 1.765 -0.76999998 7
3.302 1.8279999 -0.73699999 7
3.392 1.8710001 -0.69400001 6
3.5309999 1.943 -0.65700001 6
3.6789999 2.02 -0.61799997 4
3.858 2.1140001 -0.57800001 4
3.168 1.788 -0.77200001 7
3.2720001 1.839 -0.73500001 6
3.3940001 1.901 -0.69800001 6
3.5480001 1.982 -0.66399997 3
3.6800001 2.0510001 -0.62099999 5
3.849 2.141 -0.57999998 4
3.1619999 1.812 -0.77499998 6
3.2720001 1.867 -0.73900002 7
3.378 1.921 -0.699 5
3.5150001 1.993 -0.662 5
3.6719999 2.0769999 -0.62400001 5
3.845 2.171 -0.58399999 4
3.135 1.823 -0.77200001 6
3.2479999 1.881 -0.73699999 5
3.385 1.9529999 -0.704 6
3.5409999 2.0369999 -0.67000002 4
3.6900001 2.118 -0.63 4
3.8399999 2.2 -0.58600003 4
3.1559999 1.862 -0.78100002 7
3.279 1.926 -0.74800003 7
3.3699999 1.972 -0.70499998 4
3.513 2.049 -0.66799998 5
3.687 2.145 -0.63300002 4
3.835 2.2279999 -0.58899999 4
3.1459999 1.882 -0.78200001 8
3.2349999 1.926 -0.741 5
3.3659999 1.997 -0.70700002 6
3.5320001 2.089 -0.67500001 4
3.677 2.1689999 -0.63499999 4
3.8380001 2.26 -0.59200001 4
3.1459999 1.9069999 -0.78600001 7
3.2639999 1.969 -0.75099999 7
3.368 2.0239999 -0.71100003 7
3.4979999 2.096 -0.67199999 5
3.674 2.1960001 -0.63700002 4
3.832 2.286 -0.59399998 5
3.112 1.911 -0.78100002 6
3.244 1.983 -0.75 7
3.359 2.0450001 -0.71200001 7
3.523 2.1389999 -0.68000001 5
3.675 2.224 -0.63999999 4
3.8310001 2.3139999 -0.597 5
3.125 1.943 -0.787 7
3.2260001 1.997 -0.74900001 6
3.3540001 2.0669999 -0.71399999 5
3.4979999 2.1489999 -0.67799997 6
3.6700001 2.2490001 -0.64200002 4
3.8269999 2.3399999 -0.59799999 5
3.119 1.962 -0.78899997 6
3.2260001 2.02 -0.75199997 6
3.378 2.1070001 -0.722 4
3.4949999 2.1730001 -0.68000001 6
3.674 2.2780001 -0.64499998 4
3.825 2.3670001 -0.60100001 4
3.1140001 1.982 -0.79000002 6
3.2160001 2.0380001 -0.75199997 6
3.3759999 2.1300001 -0.72399998 4
3.5179999 2.2119999 -0.68699998 5
3.6630001 2.2969999 -0.64499998 4
3.8180001 2.3900001 -0.602 4
3.099 1.995 -0.78899997 6
3.2219999 2.0639999 -0.75599998 7
3.3499999 2.1370001 -0.72000003 5
3.513 2.233 -0.68800002 5
3.664 2.323 -0.648 4
3.8169999 2.415 -0.60299999 4
3.098 2.0150001 -0.79100001 6
3.221 2.085 -0.75800002 7
3.3440001 2.1559999 -0.72100002 4
3.51 2.2550001 -0.68900001 4
3.665 2.348 -0.64999998 5
3.8169999 2.4400001 -0.60500002 4
3.0940001 2.033 -0.792 6
3.217 2.1040001 -0.759 7
3.3469999 2.1800001 -0.72399998 5
3.507 2.276 -0.69 3
3.6470001 2.3599999 -0.648 5
0 0 0 50
3.1070001 2.0610001 -0.79699999 7
3.2119999 2.1199999 -0.759 6
3.3659999 2.2130001 -0.72899997 4
3.4890001 2.286 -0.68800002 6
3.6689999 2.3959999 -0.653 4
3.816 2.487 -0.60699999 4
3.105 2.079 -0.79799998 7
3.211 2.1389999 -0.75999999 5
3.349 2.221 -0.727 6
3.513 2.322 -0.69400001 4
3.665 2.415 -0.653 4
3.8150001 2.5090001 -0.60799998 4
3.092 2.0880001 -0.796 6
3.211 2.158 -0.76200002 6
3.3410001 2.2349999 -0.72600001 5
3.5079999 2.3380001 -0.69400001 5
3.665 2.4360001 -0.65399998 4
3.816 2.5309999 -0.60900003 4
3.086 2.0999999 -0.79500002 4
3.207 2.1719999 -0.76099998 5
3.372 2.273 -0.73299998 4
3.5109999 2.359 -0.69499999 4
3.668 2.457 -0.65499997 4
3.825 2.5569999 -0.61000001 4
3.1240001 2.142 -0.80599999 7
3.2130001 2.1919999 -0.764 6
3.3729999 2.2909999 -0.73400003 4
3.517 2.3800001 -0.69599998 4
3.6730001 2.4790001 -0.65600002 4
3.8310001 2.5799999 -0.611 4
3.1099999 2.1470001 -0.80299997 7
3.2130001 2.207 -0.764 4
3.3710001 2.306 -0.73400003 4
3.517 2.3970001 -0.69599998 4
3.668 2.493 -0.65499997 4
3.8269999 2.595 -0.611 4
3.098 2.152 -0.80000001 6
3.2149999 2.2219999 -0.764 6
3.3829999 2.3280001 -0.73699999 4
3.5190001 2.4130001 -0.69700003 5
3.6689999 2.5090001 -0.65499997 4
3.8310001 2.6140001 -0.611 4
3.1070001 2.171 -0.80199999 7
3.2479999 2.2579999 -0.77200001 4
3.378 2.3380001 -0.73500001 4
3.5209999 2.4289999 -0.69700003 4
3.6800001 2.5309999 -0.65700001 4
3.8369999 2.6329999 -0.611 5
3.0940001 2.1730001 -0.79799998 4
3.2479999 2.27 -0.77200001 4
3.3789999 2.3510001 -0.73500001 4
3.523 2.4430001 -0.69599998 4
3.675 2.5409999 -0.65499997 4
3.835 2.645 -0.61000001 4
3.0969999 2.1849999 -0.79799998 5
3.2479999 2.2809999 -0.77100003 5
3.3840001 2.3659999 -0.73500001 4
0 0 0 50
3.6800001 2.556 -0.65499997 4
3.8369999 2.6600001 -0.60900003 5
3.0999999 2.197 -0.79799998 6
3.2539999 2.2939999 -0.77100003 4
3.3889999 2.3789999 -0.73500001 5
3.53 2.4690001 -0.69499999 4
3.688 2.573 -0.65499997 4
3.846 2.677 -0.60900003 5
3.109 2.211 -0.79900002 7
3.253 2.302 -0.76999998 4
3.3870001 2.3859999 -0.73299998 5
3.5369999 2.483 -0.69499999 5
3.687 2.5810001 -0.653 4
3.8570001 2.694 -0.60900003 5
3.1099999 2.2179999 -0.79799998 5
3.256 2.3110001 -0.76899999 5
3.391 2.3959999 -0.73199999 4
3.536 2.4890001 -0.69300002 4
3.691 2.592 -0.65200001 4
3.855 2.7 -0.60600001 5
3.118 2.2290001 -0.79799998 5
3.2639999 2.3210001 -0.76899999 4
3.3940001 2.404 -0.73100001 4
3.543 2.5 -0.69300002 5
3.698 2.602 -0.65100002 4
3.8570001 2.7090001 -0.60399997 4
3.118 2.2320001 -0.796 5
3.273 2.332 -0.76899999 5
3.401 2.414 -0.73000002 4
3.5469999 2.5079999 -0.69099998 4
3.7049999 2.612 -0.64999998 4
3.8670001 2.721 -0.60399997 4
3.122 2.2379999 -0.79500002 5
3.2739999 2.336 -0.76700002 4
3.4100001 2.4219999 -0.73000002 4
3.5580001 2.5190001 -0.69099998 5
3.7160001 2.6229999 -0.64899999 4
3.8759999 2.7309999 -0.602 5
3.125 2.2420001 -0.79400003 4
3.273 2.336 -0.764 4
3.4170001 2.4289999 -0.72899997 4
3.5639999 2.5250001 -0.69 5
3.724 2.631 -0.648 4
3.8859999 2.74 -0.60100001 4
3.1359999 2.2490001 -0.79400003 4
3.289 2.3469999 -0.76499999 4
3.4230001 2.4330001 -0.727 4
3.575 2.5320001 -0.68800002 5
3.721 2.6289999 -0.64399999 4
3.892 2.7449999 -0.59899998 4
3.1370001 2.2490001 -0.79100001 5
0 0 0 50
3.427 2.434 -0.72500002 4
3.572 2.529 -0.685 4
3.7360001 2.638 -0.64300001 4
3.8929999 2.743 -0.59500003 4
3.138 2.247 -0.78799999 5
3.2950001 2.3469999 -0.75999999 5
3.431 2.434 -0.72299999 4
3.582 2.533 -0.68300003 4
3.7390001 2.6370001 -0.64099997 4
3.9070001 2.7509999 -0.59399998 4
3.1500001 2.2509999 -0.78799999 5
3.3039999 2.349 -0.759 5
3.444 2.4389999 -0.722 5
3.5880001 2.533 -0.68099999 4
3.7550001 2.6440001 -0.63999999 4
3.918 2.753 -0.59200001 4
3.1849999 2.27 -0.79299998 4
3.2809999 2.3280001 -0.75 5
3.447 2.4349999 -0.71899998 4
3.5929999 2.53 -0.67799997 4
3.7550001 2.6370001 -0.63599998 4
0 0 0 50
3.1670001 2.25 -0.78500003 7
3.3110001 2.342 -0.75300002 5
3.454 2.4330001 -0.71700001 4
3.6029999 2.53 -0.67699999 5
3.7590001 2.6329999 -0.63300002 4
3.9300001 2.7479999 -0.58600003 5
3.1700001 2.244 -0.78200001 6
3.3210001 2.3399999 -0.75099999 4
3.4579999 2.428 -0.71399999 4
3.612 2.5280001 -0.67500001 5
3.7750001 2.635 -0.63200003 4
3.944 2.7479999 -0.58499998 4
3.175 2.2379999 -0.77899998 6
3.3269999 2.335 -0.74900001 4
3.4679999 2.424 -0.71200001 4
3.6159999 2.52 -0.671 5
3.776 2.625 -0.62800002 4
3.9530001 2.743 -0.58200002 4
3.1800001 2.2309999 -0.77600002 6
3.335 2.329 -0.74699998 5
3.4760001 2.418 -0.70899999 4
3.6289999 2.517 -0.67000002 5
3.7909999 2.6229999 -0.62599999 4
3.96 2.7349999 -0.579 4
3.1900001 2.2260001 -0.77499998 5
3.345 2.3239999 -0.745 4
3.4860001 2.4130001 -0.70700002 5
3.635 2.5079999 -0.66600001 5
3.7920001 2.6099999 -0.62199998 4
3.961 2.7219999 -0.57499999 4
3.191 2.2130001 -0.77100003 6
3.3510001 2.3139999 -0.74199998 3
3.493 2.4030001 -0.70499998 4
3.648 2.5020001 -0.66500002 5
3.8010001 2.6010001 -0.61900002 4
3.97 2.7130001 -0.57200003 4
3.201 2.2060001 -0.76899999 5
3.3599999 2.3050001 -0.74000001 4
3.494 2.3889999 -0.70099998 4
3.6470001 2.4860001 -0.66000003 4
3.8069999 2.589 -0.616 4
3.9790001 2.7019999 -0.56900001 4
3.21 2.1960001 -0.76700002 6
3.3629999 2.2909999 -0.736 4
3.5050001 2.3789999 -0.69800001 4
3.6589999 2.477 -0.65799999 4
3.8099999 2.573 -0.61299998 4
3.9909999 2.691 -0.56599998 4
3.2190001 2.1860001 -0.764 6
3.3670001 2.277 -0.73299998 4
3.4909999 2.352 -0.69099998 6
3.6619999 2.46 -0.65499997 4
0 0 0 50
3.993 2.6730001 -0.56199998 4
3.2260001 2.1730001 -0.76200002 6
3.3800001 2.267 -0.73100001 4
3.5150001 2.3499999 -0.69199997 3
3.668 2.444 -0.65100002 4
3.8329999 2.549 -0.60799998 4
4.0040002 2.6589999 -0.56 4
3.2309999 2.1570001 -0.759 6
3.3640001 2.237 -0.72299999 6
3.5280001 2.3380001 -0.69 5
3.6819999 2.4330001 -0.64999998 3
3.8380001 2.53 -0.60399997 4
4.007 2.638 -0.55599999 4
3.234 2.1400001 -0.755 6
3.388 2.2320001 -0.72399998 4
3.536 2.322 -0.68699998 4
3.6889999 2.4159999 -0.64700001 5
3.8499999 2.516 -0.602 4
4.0170002 2.6210001 -0.55299997 4
3.2409999 2.1240001 -0.75199997 6
3.372 2.201 -0.71700001 6
3.5420001 2.3039999 -0.68400002 5
3.691 2.3940001 -0.64300001 5
3.858 2.497 -0.59899998 5
4.0229998 2.5999999 -0.55000001 4
3.2609999 2.115 -0.75300002 7
3.4059999 2.2 -0.72000003 4
3.5469999 2.2839999 -0.68099999 5
3.698 2.375 -0.63999999 4
3.8610001 2.474 -0.59600002 4
4.033 2.5799999 -0.54799998 4
3.2579999 2.0910001 -0.74800003 6
3.3770001 2.1589999 -0.70899999 5
3.5539999 2.2639999 -0.67900002 4
3.7060001 2.3540001 -0.63700002 4
3.868 2.4519999 -0.59299999 4
4.04 2.5580001 -0.54500002 4
3.27 2.075 -0.74599999 7
3.4159999 2.1600001 -0.71399999 4
3.5599999 2.243 -0.676 5
3.7060001 2.329 -0.634 4
3.868 2.425 -0.58899999 4
4.039 2.529 -0.54100001 4
3.266 2.049 -0.74199998 4
3.4219999 2.138 -0.71100003 4
3.563 2.2190001 -0.67299998 5
3.717 2.309 -0.63200003 4
3.875 2.402 -0.58700001 4
0 0 0 50
3.2780001 2.0320001 -0.74000001 6
3.4230001 2.1129999 -0.70700002 4
3.5710001 2.197 -0.67000002 4
3.721 2.2839999 -0.62900001 5
3.869 2.3699999 -0.58200002 5
4.052 2.4779999 -0.53500003 4
3.306 2.023 -0.74299997 7
3.4070001 2.0769999 -0.69999999 6
3.5669999 2.168 -0.66600001 4
3.721 2.2550001 -0.625 4
3.8859999 2.3499999 -0.58099997 4
4.0539999 2.4489999 -0.53200001 5
3.283 1.984 -0.73400003 6
3.4059999 2.05 -0.69599998 5
3.5510001 2.1300001 -0.65899998 5
3.7260001 2.2290001 -0.62300003 5
3.8900001 2.322 -0.579 5
4.0609999 2.421 -0.52999997 4
3.296 1.964 -0.73299998 7
3.4119999 2.026 -0.69400001 6
3.5539999 2.1040001 -0.65700001 6
3.727 2.2 -0.62 5
3.8959999 2.2950001 -0.57599998 4
4.0609999 2.388 -0.52700001 5
3.309 1.9450001 -0.73199999 7
3.4219999 2.0039999 -0.69300002 6
3.5599999 2.0780001 -0.65499997 5
3.7390001 2.1760001 -0.61799997 5
3.8989999 2.2650001 -0.574 4
4.0679998 2.3599999 -0.52499998 5
3.3050001 1.915 -0.72799999 7
3.4330001 1.9809999 -0.69199997 7
0 0 0 50
3.73 2.141 -0.61400002 7
3.8989999 2.233 -0.57099998 4
4.073 2.329 -0.523 5
3.306 1.888 -0.72500002 7
3.427 1.949 -0.68800002 6
3.589 2.0350001 -0.65399998 4
3.7260001 2.1059999 -0.61000001 5
3.9089999 2.2060001 -0.56999999 4
4.0760002 2.2969999 -0.52100003 4
3.299 1.855 -0.72000003 5
3.431 1.9220001 -0.685 6
3.569 1.993 -0.64700001 4
3.73 2.0769999 -0.60799998 7
3.908 2.1719999 -0.56699997 4
4.079 2.2639999 -0.51899999 4
3.3410001 1.85 -0.727 6
3.444 1.899 -0.685 7
3.5699999 1.962 -0.64499998 6
3.7279999 2.0439999 -0.60500002 6
3.9000001 2.1340001 -0.56300002 5
4.079 2.2279999 -0.51700002 4
3.3310001 1.8150001 -0.722 6
3.4400001 1.867 -0.68099999 6
3.573 1.933 -0.64300001 6
3.7290001 2.0109999 -0.60299999 5
3.892 2.095 -0.56 5
4.0809999 2.194 -0.51499999 5
3.3269999 1.783 -0.71799999 6
3.437 1.834 -0.67799997 5
3.569 1.899 -0.63999999 6
3.73 1.979 -0.60100001 6
3.891 2.0599999 -0.55800003 5
4.0770001 2.155 -0.51300001 4
3.3399999 1.7589999 -0.71799999 7
0 0 0 50
3.572 1.868 -0.63800001 6
3.7290001 1.9450001 -0.59899998 6
3.9100001 2.0350001 -0.55900002 4
4.0679998 2.1140001 -0.50999999 6
3.3429999 1.73 -0.71600002 7
3.4430001 1.775 -0.67500001 6
3.5739999 1.837 -0.63599998 6
3.7360001 1.915 -0.59799999 6
3.8940001 1.9910001 -0.55500001 6
4.0630002 2.0739999 -0.50800002 5
3.3269999 1.692 -0.71100003 6
3.4590001 1.752 -0.676 6
3.5780001 1.806 -0.63499999 6
3.7279999 1.877 -0.59500003 6
3.891 1.954 -0.55299997 5
4.0630002 2.0369999 -0.50599998 5
3.348 1.671 -0.713 6
3.447 1.714 -0.67199999 6
3.582 1.776 -0.634 7
0 0 0 50
3.9059999 1.927 -0.55299997 4
4.0739999 2.006 -0.50599998 5
3.3429999 1.6390001 -0.70999998 7
3.4579999 1.688 -0.67199999 6
3.5929999 1.748 -0.634 7
3.7320001 1.811 -0.59299999 6
3.8929999 1.8839999 -0.55000001 6
4.0619998 1.9630001 -0.50400001 5
3.3410001 1.6059999 -0.708 7
3.4389999 1.647 -0.66600001 5
3.575 1.706 -0.62900001 6
3.727 1.774 -0.58999997 7
3.8840001 1.844 -0.54799998 6
