# .PCD v0.7 - Point Cloud Data file format
VERSION 0.7
FIELDS x y z intensity
SIZE 4 4 4 4
TYPE F F F F
COUNT 1 1 1 1
WIDTH 1695
HEIGHT 1
VIEWPOINT 0 0 0 1 0 0 0
POINTS 1695
DATA ascii
4.7659998 -1.401 -0.145 4
5.0019999 -1.46 -0.068999998 5
5.2680001 -1.528 0.012 4
5.5599999 -1.603 0.104 4
5.9050002 -1.692 0.207 4
4.5770001 -1.313 -0.211 7
0 0 0 50
5.0339999 -1.424 -0.067000002 4
5.2839999 -1.484 0.015 4
5.5770001 -1.557 0.107 4
5.9159999 -1.643 0.211 4
4.5840001 -1.274 -0.208 6
4.802 -1.325 -0.139 4
5.0440001 -1.381 -0.064000003 5
5.2940001 -1.4400001 0.017999999 4
5.5939999 -1.513 0.111 4
5.927 -1.5930001 0.214 5
4.5970001 -1.2359999 -0.206 5
4.809 -1.283 -0.13699999 4
5.0469999 -1.337 -0.061000001 5
5.3150001 -1.399 0.021 4
5.6129999 -1.467 0.114 4
0 0 0 50
4.618 -1.2 -0.20299999 6
4.8249998 -1.244 -0.134 4
5.0489998 -1.2920001 -0.057999998 18
5.3330002 -1.3559999 0.024 4
5.6360002 -1.424 0.117 4
5.9650002 -1.498 0.22 4
4.6300001 -1.161 -0.20100001 6
4.8400002 -1.205 -0.132 4
5.079 -1.255 -0.056000002 4
5.3530002 -1.313 0.027000001 3
5.6469998 -1.377 0.12 5
5.9889998 -1.451 0.22400001 5
4.6370001 -1.122 -0.199 4
4.8460002 -1.163 -0.12899999 4
5.0949998 -1.214 -0.054000001 4
5.3610001 -1.2690001 0.028999999 4
5.6719999 -1.3329999 0.122 4
6 -1.402 0.227 4
4.658 -1.085 -0.197 5
4.8649998 -1.125 -0.127 4
5.112 -1.173 -0.050999999 5
5.3730001 -1.224 0.032000002 4
5.677 -1.286 0.125 5
6.0100002 -1.352 0.229 5
0 0 0 50
4.881 -1.086 -0.125 5
5.112 -1.1289999 -0.048999999 5
5.388 -1.182 0.034000002 4
5.6859999 -1.239 0.127 4
6.0219998 -1.303 0.23100001 4
4.6680002 -1.006 -0.193 6
4.8870001 -1.045 -0.123 4
5.1290002 -1.089 -0.046999998 5
5.4000001 -1.138 0.035999998 4
5.6939998 -1.191 0.12899999 5
6.04 -1.256 0.234 5
4.678 -0.96799999 -0.191 6
4.9000001 -1.005 -0.122 5
5.1479998 -1.048 -0.045000002 4
5.4159999 -1.094 0.037999999 4
5.7189999 -1.148 0.132 5
6.053 -1.207 0.237 5
4.6929998 -0.93000001 -0.19 6
0 0 0 50
5.1570001 -1.006 -0.043000001 4
5.4260001 -1.05 0.039999999 4
5.7290001 -1.101 0.134 5
6.0679998 -1.159 0.23899999 5
4.7020001 -0.89200002 -0.18799999 4
4.928 -0.92699999 -0.119 6
5.1669998 -0.96399999 -0.041999999 5
5.4390001 -1.007 0.041999999 4
5.7399998 -1.0549999 0.13600001 4
6.079 -1.11 0.241 5
4.723 -0.85500002 -0.18700001 7
4.9310002 -0.88499999 -0.117 5
5.1729999 -0.921 -0.039999999 4
5.4530001 -0.963 0.044 4
5.7540002 -1.0089999 0.138 4
6.0970001 -1.062 0.243 4
4.7319999 -0.81699997 -0.186 7
4.941 -0.84500003 -0.116 5
5.1849999 -0.88 -0.039000001 4
0 0 0 50
5.7649999 -0.963 0.139 4
6.1030002 -1.012 0.244 5
4.7360001 -0.778 -0.185 6
4.9569998 -0.80699998 -0.114 4
5.2069998 -0.83999997 -0.037 4
5.4689999 -0.875 0.046 4
5.77 -0.917 0.141 3
6.1160002 -0.96399999 0.24600001 4
4.7459998 -0.73900002 -0.184 4
4.967 -0.76700002 -0.113 4
5.2090001 -0.79699999 -0.035999998 4
5.4809999 -0.83099997 0.048 4
5.7810001 -0.87 0.142 4
6.1300001 -0.91500002 0.248 4
4.7399998 -0.69800001 -0.182 4
4.9689999 -0.72500002 -0.112 5
0 0 0 50
5.487 -0.787 0.048999999 4
5.7919998 -0.824 0.14300001 4
6.132 -0.86500001 0.249 4
4.757 -0.66100001 -0.182 6
4.9780002 -0.685 -0.111 4
5.224 -0.713 -0.034000002 4
5.494 -0.74299997 0.050000001 4
5.8070002 -0.778 0.145 4
6.1529999 -0.81800002 0.25 4
4.7649999 -0.62300003 -0.18099999 5
4.9879999 -0.64600003 -0.111 4
5.243 -0.67199999 -0.034000002 4
5.507 -0.69999999 0.050999999 4
5.8200002 -0.73299998 0.146 4
6.1700001 -0.77100003 0.252 4
4.7750001 -0.58499998 -0.18099999 5
4.9980001 -0.60600001 -0.11 5
5.2449999 -0.63 -0.033 4
5.5139999 -0.65600002 0.052000001 4
0 0 0 50
6.1739998 -0.72100002 0.25299999 4
4.7800002 -0.54699999 -0.18000001 6
4.9980001 -0.56599998 -0.11 4
5.2470002 -0.588 -0.032000002 4
5.5229998 -0.61299998 0.052000001 4
5.8400002 -0.64200002 0.147 3
6.1830001 -0.67299998 0.25299999 4
4.7820001 -0.50800002 -0.18000001 5
5.0100002 -0.52700001 -0.109 4
5.256 -0.546 -0.032000002 4
5.5339999 -0.56900001 0.052999999 4
5.8460002 -0.59600002 0.148 4
6.1929998 -0.625 0.25400001 4
4.796 -0.47099999 -0.18000001 5
5.0139999 -0.48699999 -0.109 4
5.2670002 -0.50599998 -0.030999999 4
5.5380001 -0.52600002 0.052999999 4
5.8569999 -0.55000001 0.148 4
6.21 -0.57700002 0.255 4
0 0 0 50
5.0180001 -0.447 -0.109 4
5.2670002 -0.46399999 -0.030999999 4
5.5419998 -0.48199999 0.052999999 4
5.8610001 -0.50400001 0.149 4
6.2090001 -0.528 0.255 3
4.8039999 -0.39500001 -0.17900001 4
5.026 -0.40799999 -0.109 4
5.2709999 -0.42199999 -0.030999999 4
5.5539999 -0.43900001 0.054000001 4
5.8649998 -0.458 0.149 3
6.2080002 -0.479 0.255 4
4.8039999 -0.35600001 -0.17900001 6
5.0359998 -0.368 -0.109 4
5.2789998 -0.38100001 -0.030999999 4
5.559 -0.396 0.054000001 4
5.8660002 -0.412 0.149 4
6.2290001 -0.43200001 0.25600001 4
4.8109999 -0.31900001 -0.17900001 5
5.0349998 -0.32800001 -0.109 4
5.2849998 -0.34 -0.030999999 4
5.5619998 -0.352 0.054000001 4
5.8769999 -0.36700001 0.149 4
6.2319999 -0.38299999 0.25600001 4
4.8200002 -0.28099999 -0.18000001 7
5.0359998 -0.289 -0.109 4
5.3060002 -0.29899999 -0.030999999 4
0 0 0 50
5.8870001 -0.322 0.149 4
5.8060002 -0.31200001 0.23800001 12
4.8140001 -0.243 -0.18000001 6
5.053 -0.25 -0.109 5
5.3140001 -0.25799999 -0.032000002 4
5.5869999 -0.26699999 0.052999999 4
5.8940001 -0.27599999 0.149 4
5.73 -0.264 0.235 40
4.823 -0.206 -0.18000001 5
5.0679998 -0.211 -0.11 4
5.3189998 -0.21699999 -0.032000002 5
5.6020002 -0.22400001 0.052999999 4
5.8850002 -0.23100001 0.148 7
5.7090001 -0.219 0.233 49
4.8340001 -0.169 -0.18099999 5
5.0710001 -0.17299999 -0.11 5
5.3280001 -0.178 -0.032000002 4
0 0 0 50
5.8410001 -0.185 0.147 13
5.698 -0.176 0.233 55
4.8330002 -0.132 -0.18099999 5
5.0760002 -0.13500001 -0.111 5
5.342 -0.138 -0.033 5
5.6149998 -0.14 0.052999999 4
5.8260002 -0.141 0.146 14
5.6859999 -0.133 0.23199999 56
4.8369999 -0.094999999 -0.182 6
5.0760002 -0.096000001 -0.111 5
5.3449998 -0.097000003 -0.033 5
5.618 -0.097999997 0.052000001 4
5.8070002 -0.097000003 0.145 12
5.6919999 -0.090000004 0.23100001 58
0 0 0 50
5.0770001 -0.057999998 -0.112 5
5.3410001 -0.057 -0.034000002 4
5.6149998 -0.056000002 0.050999999 4
5.8909998 -0.054000001 0.147 6
5.7069998 -0.048 0.23199999 49
4.8439999 -0.022 -0.183 6
5.0809999 -0.02 -0.112 4
5.336 -0.017000001 -0.034000002 4
5.6160002 -0.014 0.050999999 5
5.9219999 -0.011 0.147 4
5.7529998 -0.0060000001 0.233 34
4.8379998 0.013 -0.184 6
5.0890002 0.017000001 -0.113 4
5.3429999 0.021 -0.035 5
5.6209998 0.026000001 0.050000001 4
5.9219999 0.032000002 0.146 4
0 0 0 50
4.848 0.048999999 -0.185 5
5.0689998 0.054000001 -0.113 5
5.3299999 0.061000001 -0.035999998 4
5.6079998 0.068000004 0.050000001 5
5.927 0.075999998 0.146 3
6.2820001 0.083999999 0.25299999 3
4.8449998 0.085000001 -0.185 6
5.0640001 0.092 -0.114 5
5.3239999 0.1 -0.035999998 4
5.6059999 0.108 0.048999999 4
5.928 0.119 0.145 4
6.2839999 0.13 0.252 3
4.8520002 0.12 -0.186 7
5.0780001 0.12899999 -0.115 5
5.3280001 0.139 -0.037 4
5.6220002 0.15000001 0.048 4
5.9369998 0.162 0.14399999 3
0 0 0 50
4.855 0.156 -0.18700001 7
5.0799999 0.16599999 -0.116 4
5.3249998 0.177 -0.037999999 4
5.6069999 0.19 0.048 4
5.9359999 0.205 0.14399999 4
6.2919998 0.221 0.25099999 3
4.8600001 0.191 -0.18799999 6
5.079 0.20299999 -0.116 5
5.3330002 0.21600001 -0.037999999 4
5.619 0.23100001 0.046999998 5
5.9400001 0.24699999 0.14300001 3
6.2989998 0.266 0.25099999 4
4.8590002 0.226 -0.18799999 6
5.0890002 0.23999999 -0.117 6
5.3379998 0.25400001 -0.039000001 4
5.625 0.271 0.046999998 4
5.9419999 0.28999999 0.14300001 3
6.2969999 0.31099999 0.25 4
4.8610001 0.26100001 -0.189 5
5.085 0.27500001 -0.118 4
0 0 0 50
5.6279998 0.31099999 0.046 4
5.9499998 0.33199999 0.142 3
6.2989998 0.35499999 0.25 4
4.8590002 0.29499999 -0.19 5
5.0900002 0.31200001 -0.119 5
5.3429999 0.33000001 -0.039999999 4
5.6290002 0.34999999 0.045000002 4
5.948 0.373 0.142 3
6.2969999 0.398 0.249 4
4.8730001 0.33000001 -0.191 8
5.092 0.347 -0.119 5
5.349 0.36700001 -0.041000001 4
5.632 0.389 0.045000002 4
5.9679999 0.41600001 0.142 3
6.3150001 0.44299999 0.249 3
4.8720002 0.36399999 -0.192 6
5.0900002 0.382 -0.12 4
5.355 0.405 -0.041999999 4
5.6469998 0.42899999 0.044 4
5.961 0.456 0.141 4
6.316 0.48699999 0.249 3
4.8720002 0.39700001 -0.192 6
5.092 0.417 -0.12 4
5.3540001 0.44100001 -0.041999999 4
5.6440001 0.46700001 0.044 4
5.9640002 0.49700001 0.14 3
6.323 0.52999997 0.249 3
0 0 0 50
5.1009998 0.45300001 -0.121 5
5.3590002 0.47799999 -0.041999999 4
5.6469998 0.50599998 0.043000001 4
5.9720001 0.53799999 0.141 3
6.3270001 0.57300001 0.249 3
4.875 0.46399999 -0.193 4
5.0999999 0.48699999 -0.122 5
5.3600001 0.514 -0.043000001 4
5.6560001 0.54500002 0.043000001 4
5.9720001 0.57800001 0.14 3
6.3410001 0.61699998 0.249 3
4.8889999 0.498 -0.19400001 9
5.1079998 0.52200001 -0.122 5
5.3600001 0.55000001 -0.043000001 4
5.6479998 0.58099997 0.043000001 4
5.9860001 0.61900002 0.141 3
6.349 0.65899998 0.25 3
4.8850002 0.52999997 -0.19499999 8
5.1110001 0.55599999 -0.122 5
5.3649998 0.58499998 -0.043000001 4
5.6630001 0.62 0.043000001 4
5.9980001 0.65899998 0.141 3
6.3520002 0.70099998 0.25 3
4.8870001 0.56199998 -0.19499999 6
5.1090002 0.58899999 -0.123 5
5.3740001 0.62099999 -0.043000001 4
5.6630001 0.65600002 0.043000001 4
6.0029998 0.69800001 0.141 3
6.368 0.74299997 0.25099999 3
4.888 0.59399998 -0.19499999 8
0 0 0 50
5.3769999 0.65600002 -0.043000001 4
5.6680002 0.69300002 0.043000001 4
6.0100002 0.73699999 0.142 3
6.3639998 0.78299999 0.25099999 3
4.8920002 0.625 -0.19499999 7
5.1170001 0.65499997 -0.123 5
5.3800001 0.69 -0.043000001 4
5.6739998 0.73000002 0.044 4
6.007 0.77499998 0.142 3
6.3720002 0.82499999 0.252 3
4.902 0.65799999 -0.19599999 8
5.1170001 0.68800002 -0.122 5
5.3899999 0.72500002 -0.043000001 4
5.6820002 0.76599997 0.044 3
6.02 0.81400001 0.14300001 4
6.382 0.86500001 0.25299999 3
4.9039998 0.68800002 -0.19499999 7
5.119 0.71899998 -0.122 5
5.3889999 0.759 -0.043000001 4
5.684 0.80199999 0.045000002 4
6.0240002 0.85100001 0.14399999 4
6.3899999 0.90600002 0.25400001 3
4.902 0.71799999 -0.19499999 6
5.1240001 0.75099999 -0.122 5
5.4000001 0.79299998 -0.041999999 4
5.7010002 0.83899999 0.046 4
6.0380001 0.88999999 0.145 2
6.4000001 0.94599998 0.25600001 3
4.9109998 0.74900001 -0.19499999 6
5.132 0.78399998 -0.121 5
5.4070001 0.82700002 -0.041999999 4
5.7119999 0.875 0.046999998 4
6.0419998 0.92699999 0.146 3
6.414 0.98699999 0.257 3
0 0 0 50
5.1370001 0.815 -0.121 5
5.4060001 0.85900003 -0.039999999 4
5.711 0.90799999 0.048 4
6.0549998 0.96499997 0.148 3
6.428 1.027 0.259 2
4.9109998 0.80699998 -0.193 5
5.1370001 0.84500003 -0.12 5
5.4229999 0.89300001 -0.039999999 4
5.7270002 0.94400001 0.048999999 5
6.0650001 1.002 0.149 3
6.4310002 1.064 0.26100001 2
4.9260001 0.838 -0.193 7
5.1490002 0.87699997 -0.119 5
5.428 0.92500001 -0.037999999 5
5.724 0.977 0.050999999 4
6.0770001 1.039 0.15099999 3
6.4520001 1.105 0.264 1
4.9299998 0.86699998 -0.192 6
5.1550002 0.90700001 -0.118 5
5.4400001 0.95700002 -0.037 5
5.7459998 1.012 0.052000001 4
6.0879998 1.074 0.153 4
6.4629998 1.143 0.26699999 1
4.941 0.89600003 -0.191 5
5.164 0.93699998 -0.117 5
5.4510002 0.98900002 -0.035 4
5.7529998 1.045 0.054000001 4
6.1009998 1.11 0.156 3
6.4679999 1.179 0.26899999 3
4.9439998 0.92299998 -0.189 6
0 0 0 50
5.4559999 1.02 -0.034000002 4
5.7709999 1.08 0.057 4
6.1240001 1.147 0.15899999 3
6.487 1.217 0.27200001 1
4.954 0.95200002 -0.18799999 4
5.1820002 0.99599999 -0.113 5
5.461 1.05 -0.030999999 5
5.776 1.1109999 0.059 4
6.1339998 1.181 0.162 3
6.506 1.255 0.27599999 4
4.9580002 0.97799999 -0.186 7
5.1929998 1.024 -0.112 5
5.4829998 1.082 -0.028999999 4
5.796 1.1440001 0.061999999 3
6.1459999 1.215 0.16500001 3
6.5110002 1.289 0.28 1
4.9710002 1.006 -0.185 6
5.2059999 1.053 -0.109 4
5.4879999 1.1109999 -0.026000001 5
5.8200002 1.179 0.064999998 3
6.1739998 1.252 0.169 3
6.507 1.321 0.28299999 0
4.98 1.0319999 -0.183 7
5.2179999 1.081 -0.107 5
5.5029998 1.141 -0.024 4
5.8200002 1.207 0.068000004 4
6.1830001 1.284 0.17200001 3
6.5120001 1.354 0.287 0
4.994 1.059 -0.18099999 5
5.2309999 1.109 -0.105 5
5.5219998 1.171 -0.021 4
5.8260002 1.2359999 0.071000002 4
6.204 1.318 0.176 3
6.5209999 1.387 0.29100001 0
4.9970002 1.0829999 -0.178 5
5.25 1.138 -0.102 4
5.5320001 1.199 -0.017999999 4
5.8520002 1.2690001 0.075000003 4
0 0 0 50
6.5409999 1.4220001 0.296 0
5.0120001 1.109 -0.176 5
5.263 1.164 -0.098999999 4
5.54 1.226 -0.014 4
5.8800001 1.302 0.079000004 4
6.2329998 1.381 0.185 3
6.586 1.462 0.303 0
5.0229998 1.133 -0.17299999 5
5.276 1.1900001 -0.096000001 5
5.5700002 1.257 -0.011 4
5.895 1.331 0.082999997 3
6.256 1.414 0.19 2
6.6500001 1.505 0.31 1
5.0440001 1.16 -0.17 4
5.2919998 1.216 -0.092 4
5.5819998 1.283 -0.0070000002 4
5.9089999 1.359 0.088 3
6.2810001 1.446 0.19599999 1
6.6799998 1.54 0.317 1
5.0549998 1.183 -0.167 5
5.3140001 1.243 -0.089000002 4
0 0 0 50
5.934 1.3890001 0.093000002 3
6.296 1.475 0.20100001 1
6.7090001 1.573 0.32300001 1
5.0749998 1.207 -0.164 5
5.3260002 1.266 -0.085000001 4
5.6230001 1.337 0.001 4
5.9770002 1.4220001 0.097999997 3
6.3210001 1.505 0.207 1
6.73 1.605 0.33000001 1
5.0840001 1.228 -0.16 5
5.336 1.289 -0.081 4
5.6389999 1.362 0.0060000001 5
5.9749999 1.444 0.104 3
6.3530002 1.5369999 0.214 1
6.757 1.637 0.338 1
5.0960002 1.25 -0.156 4
5.3670001 1.316 -0.077 4
5.6630001 1.388 0.011 4
6 1.471 0.109 2
6.3730001 1.5650001 0.22 1
6.79 1.669 0.34599999 1
5.1149998 1.272 -0.152 4
5.3769999 1.337 -0.071999997 4
5.6859999 1.413 0.016000001 4
6.0289998 1.499 0.116 2
6.401 1.5930001 0.227 1
6.8210001 1.7 0.354 1
0 0 0 50
5.3969998 1.359 -0.067000002 4
5.6960001 1.434 0.022 3
6.0479999 1.524 0.122 2
6.421 1.619 0.234 1
6.8600001 1.732 0.36300001 1
5.1469998 1.312 -0.14300001 4
5.4260001 1.383 -0.061999999 4
5.7280002 1.46 0.027000001 3
6.0739999 1.549 0.12800001 1
6.4569998 1.648 0.242 1
6.8899999 1.761 0.37200001 1
5.1719999 1.3329999 -0.138 4
5.4369998 1.401 -0.056000002 4
5.7470002 1.4809999 0.033 3
6.1059999 1.575 0.13500001 1
6.4879999 1.675 0.25 1
6.9190001 1.789 0.38 1
5.1919999 1.352 -0.134 3
5.4569998 1.421 -0.050999999 4
5.7670002 1.502 0.039999999 3
6.125 1.596 0.14300001 1
6.5219998 1.701 0.259 1
6.9590001 1.818 0.38999999 1
5.2119999 1.37 -0.12800001 3
5.4809999 1.441 -0.045000002 3
5.7950001 1.524 0.046 3
6.1550002 1.619 0.15000001 1
0 0 0 50
6.9819999 1.841 0.39899999 1
5.2259998 1.386 -0.123 4
5.5 1.4579999 -0.039999999 3
5.8109999 1.541 0.052999999 3
6.1810002 1.64 0.15700001 1
6.586 1.75 0.27599999 1
7.0089998 1.865 0.40900001 1
5.2519999 1.404 -0.118 4
5.52 1.475 -0.033 3
5.8460002 1.563 0.059 2
6.2030001 1.659 0.16500001 1
6.6129999 1.771 0.285 1
7.0630002 1.8940001 0.421 1
5.2709999 1.419 -0.112 4
5.539 1.4910001 -0.027000001 4
5.8730001 1.581 0.066 2
6.2379999 1.6799999 0.17299999 1
6.6609998 1.796 0.29499999 1
7.1009998 1.918 0.43099999 1
5.289 1.433 -0.106 4
0 0 0 50
5.9000001 1.598 0.074000001 2
6.2690001 1.699 0.182 1
6.6820002 1.813 0.30399999 1
7.1440001 1.942 0.44299999 1
5.3210001 1.449 -0.101 4
5.5939999 1.523 -0.014 3
5.9239998 1.614 0.082000002 1
6.2969999 1.717 0.19 1
6.7210002 1.834 0.31400001 1
7.2090001 1.971 0.45500001 1
5.3390002 1.461 -0.094999999 4
5.6170001 1.5369999 -0.0070000002 4
5.96 1.631 0.089000002 1
6.3270001 1.733 0.199 1
6.7579999 1.853 0.324 1
7.256 1.993 0.46700001 1
5.3579998 1.472 -0.088 4
5.6399999 1.549 -0.001 4
5.9840002 1.6440001 0.097000003 1
6.3530002 1.747 0.207 1
6.7940001 1.8710001 0.33399999 1
7.3239999 2.02 0.48100001 1
5.3790002 1.482 -0.082000002 4
5.6680002 1.562 0.0049999999 4
6.007 1.656 0.104 1
6.3860002 1.762 0.21600001 1
6.8239999 1.885 0.34400001 1
7.4060001 2.049 0.495 1
5.4029999 1.493 -0.075999998 4
5.6880002 1.571 0.013 4
0 0 0 50
6.4250002 1.777 0.226 1
6.8590002 1.9 0.354 1
7.4860001 2.0769999 0.50999999 1
5.427 1.502 -0.068999998 3
5.7160001 1.581 0.02 3
6.072 1.681 0.121 0
6.4549999 1.788 0.235 1
6.9000001 1.914 0.36500001 1
7.5910001 2.1099999 0.52700001 2
5.448 1.5089999 -0.063000001 4
5.737 1.589 0.027000001 3
6.098 1.689 0.12899999 1
6.4829998 1.798 0.244 1
6.9320002 1.925 0.375 1
7.7080002 2.1440001 0.54500002 2
5.4650002 1.513 -0.056000002 4
5.7659998 1.597 0.034000002 3
6.1290002 1.698 0.13699999 1
6.5219998 1.808 0.25400001 1
6.9650002 1.934 0.38600001 1
7.8130002 2.174 0.56199998 2
5.4879999 1.518 -0.050000001 4
5.7870002 1.601 0.041000001 3
6.1539998 1.704 0.146 1
6.546 1.814 0.26199999 1
7.0079999 1.9450001 0.39700001 1
7.862 2.1860001 0.57499999 2
5.5040002 1.521 -0.043000001 4
5.816 1.607 0.048999999 3
6.1789999 1.7079999 0.153 1
6.5679998 1.818 0.271 1
7.0500002 1.954 0.40799999 1
7.9569998 2.21 0.59200001 2
5.5229998 1.522 -0.037 4
5.8379998 1.609 0.056000002 3
6.21 1.7130001 0.162 1
6.6069999 1.824 0.28099999 1
7.0830002 1.959 0.41800001 1
0 0 0 50
5.5430002 1.523 -0.029999999 4
5.868 1.612 0.063000001 2
6.2249999 1.712 0.17 1
6.638 1.827 0.28999999 1
7.1170001 1.962 0.42899999 1
8.0710001 2.23 0.62 3
5.5770001 1.526 -0.024 4
5.8940001 1.614 0.071000002 1
6.2509999 1.712 0.178 1
6.6750002 1.831 0.30000001 1
7.158 1.966 0.44 1
8.1160002 2.234 0.63300002 4
5.5869999 1.522 -0.017000001 4
5.915 1.612 0.077 1
6.2810001 1.7130001 0.186 1
6.7090001 1.832 0.30899999 0
7.2020001 1.97 0.45100001 1
8.1199999 2.2249999 0.64200002 4
5.6090002 1.52 -0.011 4
5.934 1.608 0.085000001 1
6.2979999 1.7079999 0.193 1
6.7340002 1.829 0.31799999 1
7.2340002 1.9680001 0.461 1
8.1859999 2.2320001 0.65700001 4
5.632 1.516 -0.0049999999 4
5.9590001 1.605 0.092 1
6.3299999 1.706 0.20100001 1
6.7659998 1.826 0.32600001 1
7.2750001 1.967 0.47099999 1
8.1969995 2.221 0.667 3
5.645 1.5089999 0 3
5.9720001 1.597 0.097999997 1
0 0 0 50
6.7930002 1.821 0.33500001 1
7.3070002 1.962 0.48100001 1
8.2329998 2.2149999 0.67900002 3
5.6690001 1.5039999 0.0060000001 3
5.9980001 1.592 0.105 1
6.3839998 1.6950001 0.21699999 1
6.8169999 1.813 0.34299999 1
7.3200002 1.95 0.48899999 1
8.2440004 2.201 0.68800002 4
5.6880002 1.4960001 0.012 3
6.0159998 1.5829999 0.111 1
6.3990002 1.6849999 0.223 1
6.842 1.804 0.352 1
7.3740001 1.948 0.5 1
8.2840004 2.1930001 0.69999999 4
5.7049999 1.4859999 0.017999999 3
6.04 1.574 0.117 1
6.427 1.677 0.23 1
6.8699999 1.794 0.359 1
7.3959999 1.9349999 0.509 1
8.3260002 2.1830001 0.71100003 4
5.7220001 1.475 0.023 3
6.0630002 1.564 0.123 1
6.4380002 1.6619999 0.237 1
6.8899999 1.781 0.36700001 1
7.421 1.9220001 0.51800001 1
8.3599997 2.1700001 0.72100002 4
5.743 1.464 0.028999999 3
6.0739999 1.55 0.12899999 1
6.46 1.649 0.243 1
6.8969998 1.763 0.373 1
7.4390001 1.906 0.52499998 1
8.434 2.1659999 0.73500001 4
5.7459998 1.448 0.033 3
6.0939999 1.536 0.13500001 1
0 0 0 50
6.928 1.75 0.38 1
7.4689999 1.891 0.53299999 1
8.4350004 2.1400001 0.74199998 4
5.7639999 1.434 0.037999999 4
6.1030002 1.5190001 0.14 2
6.4959998 1.618 0.255 1
6.9349999 1.73 0.38600001 1
7.494 1.873 0.54100001 1
8.4370003 2.1129999 0.74800003 4
5.776 1.4170001 0.043000001 4
6.1240001 1.503 0.145 1
6.507 1.599 0.25999999 1
6.9619999 1.7130001 0.39300001 1
7.5040002 1.85 0.54699999 1
8.5220003 2.1059999 0.76200002 4
5.7849998 1.399 0.046999998 4
6.1339998 1.484 0.15000001 1
6.5229998 1.58 0.266 1
6.9699998 1.6900001 0.398 1
7.507 1.824 0.55199999 1
8.5249996 2.076 0.76800001 4
5.7979999 1.381 0.050999999 4
6.1469998 1.465 0.154 1
6.527 1.557 0.27000001 1
6.9840002 1.668 0.403 1
7.5229998 1.8 0.55800003 1
8.5450001 2.049 0.77499998 4
0 0 0 50
6.1550002 1.443 0.15800001 2
6.5430002 1.535 0.27500001 1
7.006 1.646 0.40900001 1
7.533 1.773 0.56300002 1
8.6059999 2.0309999 0.78500003 4
5.8210001 1.34 0.059 4
6.1659999 1.42 0.162 1
6.5679998 1.5140001 0.28 1
7.0040002 1.617 0.41299999 1
7.5580001 1.748 0.56900001 1
6.382 1.48 0.58600003 0
5.822 1.316 0.061999999 3
6.1659999 1.395 0.16500001 3
6.5669999 1.487 0.28299999 1
0 0 0 0
6.4790001 1.472 0.491 0
6.5110002 1.482 0.60100001 1
5.829 1.293 0.064999998 4
6.1859999 1.372 0.169 2
6.5679998 1.4579999 0.28600001 1
6.5019999 1.446 0.389 0
6.447 1.436 0.491 0
6.5300002 1.4579999 0.60500002 3
5.8410001 1.2690001 0.068000004 4
6.1919999 1.346 0.17200001 1
6.5419998 1.423 0.28799999 0
6.4650002 1.408 0.38999999 0
6.4489999 1.408 0.49399999 0
0 0 0 50
5.836 1.2410001 0.07 4
6.1989999 1.319 0.175 3
6.5370002 1.392 0.28999999 0
6.447 1.375 0.391 1
6.4169998 1.3710001 0.49399999 1
6.5120001 1.3940001 0.60799998 20
5.8499999 1.216 0.071999997 4
6.2010002 1.29 0.177 3
6.5279999 1.359 0.292 0
6.461 1.346 0.39399999 4
6.4260001 1.342 0.49700001 5
6.3899999 1.337 0.59899998 12
5.8600001 1.1900001 0.074000001 3
6.2090001 1.261 0.17900001 3
6.5349998 1.3279999 0.294 0
6.461 1.3150001 0.396 3
6.427 1.3099999 0.498 2
6.3860002 1.304 0.60000002 8
5.855 1.159 0.075999998 4
6.1939998 1.226 0.18000001 3
6.54 1.296 0.296 0
6.4840002 1.286 0.39899999 1
6.4679999 1.285 0.50300002 0
6.5560002 1.306 0.61699998 1
5.8439999 1.127 0.078000002 4
0 0 0 50
6.5700002 1.268 0.29899999 1
6.5510001 1.266 0.40400001 0
6.5100002 1.26 0.50700003 0
6.4239998 1.2460001 0.60500002 18
5.8449998 1.096 0.079000004 4
6.2020001 1.164 0.183 2
6.5910001 1.238 0.301 1
7.007 1.317 0.43399999 1
7.5570002 1.423 0.58999997 1
6.428 1.212 0.60699999 14
5.8340001 1.063 0.079000004 4
6.2020001 1.13 0.184 2
6.585 1.201 0.301 1
7.0489998 1.2869999 0.43700001 1
7.572 1.3839999 0.59200001 1
6.671 1.222 0.63 1
5.8330002 1.031 0.081 4
6.197 1.095 0.185 2
6.5939999 1.166 0.303 1
7.0370002 1.2460001 0.43700001 1
7.5599999 1.34 0.59100002 1
8.1420002 1.446 0.76899999 1
5.8379998 0.99900001 0.081 4
6.1950002 1.0599999 0.185 3
6.579 1.126 0.30199999 1
7.027 1.204 0.43599999 1
7.5500002 1.295 0.59100002 1
8.1409998 1.4 0.76999998 1
5.8379998 0.96600002 0.081 4
6.1960001 1.026 0.185 3
6.5819998 1.09 0.303 1
7.0219998 1.164 0.43599999 1
0 0 0 50
8.125 1.351 0.76800001 1
5.842 0.93400002 0.082000002 4
6.1789999 0.98799998 0.185 1
6.5669999 1.05 0.30199999 1
7.006 1.1210001 0.435 1
7.5339999 1.206 0.58899999 1
8.1160002 1.302 0.76599997 1
5.8249998 0.89700001 0.081 3
6.1739998 0.95099998 0.185 3
6.5510001 1.0089999 0.301 1
7.0040002 1.079 0.43399999 1
7.5180001 1.16 0.58700001 1
8.099 1.251 0.764 1
5.829 0.86299998 0.081 4
6.1690001 0.91299999 0.184 4
6.5479999 0.96899998 0.30000001 1
6.9990001 1.036 0.433 1
7.4970002 1.1109999 0.58499998 2
8.0810003 1.199 0.76099998 1
5.8119998 0.82499999 0.081 4
6.1589999 0.87400001 0.183 3
6.5419998 0.92799997 0.29899999 1
6.9879999 0.99199998 0.43200001 1
7.487 1.063 0.583 2
8.0649996 1.147 0.75800002 1
5.8140001 0.79000002 0.079999998 4
6.1479998 0.83499998 0.182 2
6.5320001 0.88700002 0.29800001 1
6.98 0.94800001 0.43000001 1
7.5050001 1.0190001 0.583 1
8.0340004 1.092 0.75400001 1
5.8010001 0.75199997 0.079000004 4
6.1350002 0.79400003 0.18099999 2
6.52 0.84399998 0.296 1
6.973 0.90200001 0.42899999 1
0 0 0 50
8.0380001 1.0420001 0.75300002 1
5.7969999 0.71499997 0.078000002 3
6.1220002 0.75400001 0.18000001 2
6.5120001 0.801 0.29499999 1
6.9980001 0.861 0.42899999 1
7.4689999 0.91900003 0.57700002 2
8.0129995 0.98699999 0.74800003 1
5.7779999 0.676 0.077 4
6.1199999 0.71499997 0.17900001 2
6.4970002 0.75800002 0.29300001 1
6.9809999 0.81400001 0.426 1
7.4660001 0.87099999 0.57499999 1
7.9860001 0.93199998 0.74400002 1
5.7709999 0.63800001 0.075999998 4
6.1170001 0.67500001 0.177 3
6.4819999 0.71499997 0.29100001 1
6.9619999 0.76700002 0.42300001 1
7.4289999 0.81800002 0.57099998 2
7.9710002 0.87800002 0.74000001 2
5.7639999 0.59899998 0.075000003 4
6.098 0.63300002 0.175 4
6.4650002 0.67000002 0.289 3
6.9390001 0.71899998 0.41999999 1
7.4219999 0.76899999 0.56800002 2
7.9349999 0.82099998 0.73500001 2
5.7480001 0.56 0.072999999 4
6.086 0.59200001 0.17399999 3
6.4590001 0.62699997 0.287 1
6.9089999 0.67000002 0.41600001 1
7.3969998 0.71600002 0.56400001 1
7.9239998 0.76700002 0.73100001 1
5.7340002 0.52100003 0.071999997 3
6.0749998 0.551 0.17200001 4
6.441 0.583 0.28400001 1
6.875 0.62099999 0.41299999 1
7.3639998 0.66399997 0.55900002 1
7.8870001 0.70999998 0.72500002 2
5.73 0.48199999 0.07 4
6.0580001 0.50800002 0.17 3
6.4219999 0.537 0.28200001 2
6.8709998 0.57300001 0.41100001 1
0 0 0 50
7.881 0.65499997 0.722 2
5.7189999 0.442 0.068999998 4
6.0510001 0.46599999 0.168 3
6.408 0.49200001 0.27900001 3
6.8460002 0.52399999 0.40700001 1
7.3169999 0.55900002 0.551 1
7.8520002 0.59899998 0.71700001 2
5.7090001 0.403 0.067000002 3
6.0300002 0.42399999 0.16599999 3
6.402 0.44800001 0.27700001 2
6.816 0.47499999 0.403 1
7.3010001 0.50700003 0.54799998 1
7.8249998 0.542 0.71200001 2
5.7020001 0.36300001 0.066 4
6.006 0.38 0.164 3
6.3709998 0.40200001 0.27399999 1
6.7979999 0.42699999 0.40000001 2
7.2610002 0.454 0.54299998 1
7.8099999 0.486 0.708 1
5.6859999 0.322 0.064000003 4
6.007 0.338 0.162 3
6.375 0.35699999 0.27200001 3
6.7789998 0.377 0.39700001 1
7.2540002 0.40200001 0.54000002 1
7.7709999 0.428 0.70200002 1
5.6820002 0.28200001 0.061999999 4
6.0009999 0.29499999 0.16 3
6.3569999 0.31099999 0.27000001 3
6.7600002 0.32800001 0.39399999 1
7.2309999 0.34900001 0.53600001 1
7.7649999 0.37200001 0.699 2
5.6669998 0.241 0.059999999 5
5.9819999 0.252 0.15800001 3
6.3369999 0.26499999 0.26699999 3
6.7589998 0.28 0.39199999 1
7.2189999 0.296 0.53200001 1
7.7410002 0.315 0.69400001 1
5.6589999 0.20100001 0.059 4
5.961 0.20900001 0.156 3
6.3280001 0.219 0.26499999 3
6.7340002 0.23 0.38800001 1
7.191 0.243 0.528 1
7.7199998 0.25799999 0.69 1
5.6490002 0.16 0.057 5
5.9489999 0.16500001 0.154 3
6.3109999 0.17299999 0.26199999 3
6.7090001 0.18099999 0.384 1
7.1739998 0.191 0.52499998 1
0 0 0 50
5.6370001 0.119 0.056000002 4
5.9400001 0.123 0.152 3
6.3010001 0.127 0.25999999 3
6.6890001 0.132 0.382 1
7.1459999 0.138 0.51999998 1
7.665 0.14399999 0.68000001 1
5.631 0.078000002 0.054000001 4
5.9260001 0.079000004 0.15000001 3
6.2839999 0.081 0.257 4
5.7870002 0.071999997 0.32800001 23
5.77 0.068000004 0.419 29
5.7950001 0.066 0.51200002 0
5.6259999 0.037 0.052999999 4
5.9169998 0.035999998 0.148 4
5.7989998 0.032000002 0.236 17
5.7259998 0.028999999 0.32300001 41
5.7049999 0.026000001 0.412 46
5.7589998 0.022 0.50700003 32
5.6149998 -0.003 0.050999999 5
5.9070001 -0.0070000002 0.146 4
5.7350001 -0.0099999998 0.23199999 32
0 0 0 50
5.6589999 -0.016000001 0.40700001 63
5.6989999 -0.018999999 0.50099999 46
5.6090002 -0.045000002 0.050000001 4
5.8889999 -0.050000001 0.14399999 5
5.7090001 -0.052000001 0.229 46
5.6570001 -0.055 0.31600001 64
5.6500001 -0.057999998 0.405 74
5.678 -0.061999999 0.49700001 61
5.6059999 -0.086000003 0.048 4
5.8629999 -0.093999997 0.142 9
5.6919999 -0.093999997 0.227 58
5.6529999 -0.097000003 0.315 69
5.645 -0.101 0.40400001 89
5.6750002 -0.105 0.495 64
5.605 -0.12800001 0.046999998 4
5.8540001 -0.13699999 0.141 11
5.6869998 -0.13699999 0.226 54
5.6539998 -0.14 0.31400001 70
5.6440001 -0.14399999 0.40200001 83
5.6690001 -0.149 0.493 66
5.5819998 -0.17 0.046 5
5.8579998 -0.182 0.14 8
0 0 0 50
5.6490002 -0.183 0.31200001 61
5.6490002 -0.18700001 0.40099999 66
5.6729999 -0.192 0.493 56
5.5739999 -0.211 0.045000002 4
5.8600001 -0.226 0.139 5
5.7129998 -0.22499999 0.22499999 45
5.6700001 -0.227 0.31200001 57
5.6589999 -0.23100001 0.40099999 60
5.6900001 -0.236 0.493 44
5.5549998 -0.25299999 0.043000001 4
5.8470001 -0.27000001 0.13699999 4
5.7519999 -0.27000001 0.22499999 29
5.6859999 -0.271 0.31200001 48
5.6820002 -0.27500001 0.40200001 44
5.7459998 -0.28299999 0.49700001 27
5.539 -0.29499999 0.041999999 4
5.8200002 -0.31400001 0.13600001 4
6.0289998 -0.329 0.235 4
5.7509999 -0.31900001 0.315 20
5.7550001 -0.324 0.40599999 20
5.8280001 -0.333 0.50300002 2
5.5229998 -0.336 0.041000001 4
5.8150001 -0.359 0.13500001 3
6.1609998 -0.38499999 0.23899999 3
0 0 0 50
7.0710001 -0.454 0.498 5
7.3319998 -0.477 0.63300002 72
5.5149999 -0.37799999 0.041000001 4
5.802 -0.403 0.134 4
6.152 -0.43200001 0.23800001 3
6.6279998 -0.472 0.361 4
7.0679998 -0.509 0.49700001 5
7.3309999 -0.53500003 0.63200003 70
5.5050001 -0.41999999 0.039999999 3
5.796 -0.447 0.133 3
6.1399999 -0.479 0.237 3
6.6339998 -0.52399999 0.361 4
7.0650001 -0.565 0.49599999 5
7.3400002 -0.59399998 0.63200003 64
5.4990001 -0.463 0.039000001 3
0 0 0 50
6.1259999 -0.52700001 0.236 3
6.6240001 -0.57599998 0.36000001 4
7.0539999 -0.62 0.495 5
7.3400002 -0.653 0.63200003 68
5.4879999 -0.505 0.039000001 4
5.7779999 -0.537 0.132 4
6.1209998 -0.57499999 0.236 3
6.6160002 -0.62800002 0.36000001 4
7.052 -0.676 0.495 5
7.348 -0.713 0.63200003 60
5.4829998 -0.54799998 0.039000001 4
5.7750001 -0.58200002 0.132 3
6.112 -0.62199998 0.235 3
6.6009998 -0.67900002 0.359 5
7.027 -0.73000002 0.493 5
7.3520002 -0.77200001 0.63300002 57
5.4759998 -0.58999997 0.037999999 4
5.7659998 -0.62699997 0.131 3
6.1090002 -0.67000002 0.236 3
0 0 0 50
7.0300002 -0.787 0.49399999 5
7.355 -0.83099997 0.63300002 50
5.4650002 -0.63200003 0.039000001 4
5.7550001 -0.671 0.131 4
6.0999999 -0.71799999 0.235 4
6.5970001 -0.78399998 0.359 4
7.02 -0.84200001 0.493 5
7.355 -0.89099997 0.634 48
5.4689999 -0.67699999 0.039000001 4
5.7519999 -0.71799999 0.131 3
6.0879998 -0.76599997 0.235 3
6.586 -0.83600003 0.359 4
7.0209999 -0.89999998 0.49399999 4
7.3579998 -0.95300001 0.63499999 42
5.461 -0.72000003 0.039000001 4
5.744 -0.764 0.132 4
6.0869999 -0.81599998 0.236 3
6.4530001 -0.87300003 0.352 4
6.8740001 -0.93800002 0.48500001 2
0 0 0 50
5.4549999 -0.764 0.039000001 4
5.744 -0.81 0.132 4
6.0819998 -0.86500001 0.236 3
6.4559999 -0.926 0.35299999 3
6.8829999 -0.99599999 0.486 1
7.3520002 -1.074 0.63700002 2
5.4510002 -0.80699998 0.039999999 3
5.737 -0.85699999 0.133 4
6.073 -0.91299999 0.237 4
6.4450002 -0.97799999 0.354 4
6.8670001 -1.051 0.48699999 3
7.3340001 -1.132 0.63700002 2
5.4429998 -0.85100001 0.039999999 4
5.737 -0.903 0.134 3
6.0809999 -0.96499997 0.23800001 4
6.4460001 -1.031 0.35499999 3
6.8559999 -1.1059999 0.48699999 2
7.3400002 -1.1950001 0.63999999 1
0 0 0 50
5.7350001 -0.94999999 0.134 4
6.0679998 -1.013 0.23899999 4
6.4390001 -1.084 0.35600001 3
6.8610001 -1.165 0.49000001 1
7.3429999 -1.258 0.64200002 1
5.4419999 -0.94 0.041999999 4
5.7259998 -0.99599999 0.13500001 4
6.0689998 -1.064 0.23999999 3
6.434 -1.137 0.35800001 4
6.849 -1.22 0.491 2
7.336 -1.318 0.64300001 1
5.441 -0.98500001 0.043000001 4
5.7280002 -1.044 0.13699999 4
6.0650001 -1.114 0.242 4
6.4390001 -1.192 0.36000001 4
6.8449998 -1.277 0.49200001 1
0 0 0 50
5.4330001 -1.029 0.045000002 4
5.7249999 -1.091 0.138 4
6.0580001 -1.163 0.243 4
6.4310002 -1.244 0.36199999 2
6.8520002 -1.336 0.495 1
7.3319998 -1.442 0.64899999 2
5.4390001 -1.075 0.046 4
5.7249999 -1.1390001 0.14 4
6.0560002 -1.214 0.245 4
6.4239998 -1.2970001 0.36300001 3
6.8520002 -1.395 0.498 1
7.336 -1.505 0.65200001 1
5.434 -1.12 0.048 4
5.7189999 -1.186 0.142 4
0 0 0 50
6.4310002 -1.354 0.366 3
6.8520002 -1.454 0.50099999 1
7.3390002 -1.5700001 0.65600002 1
5.4310002 -1.165 0.048999999 4
5.723 -1.2359999 0.14399999 4
6.0650001 -1.319 0.25 4
6.4260001 -1.4069999 0.36899999 3
6.855 -1.513 0.50400001 1
7.3379998 -1.633 0.65899998 1
5.4260001 -1.21 0.050999999 4
5.7210002 -1.284 0.146 4
6.0650001 -1.3710001 0.25299999 4
6.428 -1.4630001 0.37200001 2
6.8590002 -1.573 0.50800002 1
7.3449998 -1.698 0.66399997 1
5.4239998 -1.256 0.052999999 4
5.724 -1.334 0.148 4
6.0619998 -1.4220001 0.255 4
6.4380002 -1.521 0.375 2
0 0 0 50
7.3540001 -1.765 0.66900003 1
5.4289999 -1.304 0.055 4
5.7220001 -1.383 0.15099999 4
6.0599999 -1.475 0.25799999 4
6.4439998 -1.579 0.37900001 1
6.8600001 -1.694 0.51599997 1
7.3579998 -1.831 0.67400002 1
5.427 -1.35 0.057999998 4
5.7280002 -1.4349999 0.154 4
6.0679998 -1.53 0.26100001 4
6.4369998 -1.635 0.382 2
6.8730001 -1.758 0.52100003 1
7.368 -1.9 0.67900002 1
5.4330001 -1.4 0.059999999 4
5.7259998 -1.484 0.156 4
6.0770001 -1.585 0.26499999 4
0 0 0 50
6.9180002 -1.831 0.528 2
7.382 -1.969 0.68599999 1
5.4359999 -1.448 0.063000001 3
5.7360001 -1.5369999 0.16 4
6.1069999 -1.647 0.27000001 3
6.5510001 -1.778 0.39700001 2
6.974 -1.908 0.537 3
7.3800001 -2.0350001 0.69099998 1
5.4330001 -1.495 0.066 4
5.7410002 -1.589 0.163 4
6.1230001 -1.706 0.27399999 3
6.5770001 -1.845 0.403 2
6.987 -1.975 0.54299998 4
7.2659998 -2.0699999 0.685 18
5.4369998 -1.544 0.068999998 4
0 0 0 50
6.1430001 -1.766 0.27900001 3
6.6009998 -1.911 0.40900001 1
7.0019999 -2.0420001 0.54900002 4
7.2129998 -2.1199999 0.68599999 24
5.4450002 -1.595 0.071999997 3
5.7490001 -1.693 0.17 3
6.1599998 -1.827 0.28400001 1
6.6389999 -1.982 0.41600001 3
6.987 -2.1010001 0.55400002 5
7.1669998 -2.1719999 0.68800002 26
5.4429998 -1.642 0.075000003 4
5.7589998 -1.748 0.17399999 3
6.1659999 -1.883 0.28799999 3
6.6090002 -2.033 0.419 2
0 0 0 50
7.191 -2.2449999 0.69599998 20
5.4549999 -1.6950001 0.078000002 4
5.7600002 -1.801 0.178 3
6.171 -1.941 0.29300001 2
6.598 -2.0899999 0.42300001 2
6.9840002 -2.2279999 0.565 5
7.237 -2.326 0.70700002 10
5.4559999 -1.744 0.082000002 4
5.77 -1.8559999 0.182 3
6.1539998 -1.992 0.29699999 1
6.5819998 -2.145 0.42699999 2
6.9720001 -2.2880001 0.56999999 2
0 0 0 50
5.461 -1.796 0.086000003 4
5.77 -1.908 0.186 4
6.132 -2.0409999 0.30000001 1
6.5510001 -2.1949999 0.43000001 2
6.9710002 -2.352 0.57599998 2
7.4790001 -2.543 0.74400002 2
5.4619999 -1.846 0.089000002 4
5.7750001 -1.962 0.191 3
6.125 -2.095 0.30500001 1
0 0 0 50
6.9840002 -2.4219999 0.583 2
7.5110002 -2.625 0.755 2
5.473 -1.9 0.093000002 5
5.7870002 -2.02 0.19499999 3
6.1339998 -2.155 0.31 2
6.533 -2.3099999 0.44100001 2
7 -2.493 0.59100002 2
7.5339999 -2.7030001 0.764 2
5.474 -1.95 0.097000003 4
5.796 -2.076 0.2 4
6.1409998 -2.214 0.31600001 2
0 0 0 50
7.007 -2.5610001 0.59799999 2
7.546 -2.779 0.773 2
5.487 -2.006 0.102 4
5.7979999 -2.132 0.205 5
6.1459999 -2.273 0.32100001 2
6.5580001 -2.4419999 0.454 1
7.039 -2.6400001 0.60799998 3
7.5749998 -2.862 0.78500003 2
5.4920001 -2.059 0.106 4
5.8039999 -2.188 0.20999999 2
6.1609998 -2.3369999 0.32699999 2
6.5700002 -2.5079999 0.461 2
0 0 0 50
7.5939999 -2.9430001 0.79500002 2
5.494 -2.1110001 0.11 3
5.8130002 -2.2460001 0.215 3
6.1700001 -2.398 0.333 2
6.5819998 -2.575 0.46799999 2
7.0679998 -2.7850001 0.625 2
7.619 -3.026 0.80599999 2
5.5050001 -2.1670001 0.115 3
5.8210001 -2.3039999 0.22 1
6.184 -2.4630001 0.34 2
6.5949998 -2.6440001 0.47600001 2
0 0 0 50
7.6300001 -3.105 0.81599998 2
5.5079999 -2.221 0.119 4
5.8299999 -2.3640001 0.226 2
6.1900001 -2.5250001 0.34599999 2
6.6149998 -2.7160001 0.484 2
7.0830002 -2.9300001 0.64099997 3
7.6599998 -3.1930001 0.82800001 2
5.5139999 -2.276 0.124 3
5.8410001 -2.424 0.23100001 2
6.191 -2.585 0.352 5
6.6240001 -2.7839999 0.49200001 2
7.131 -3.0190001 0.65399998 2
0 0 0 50
5.5240002 -2.3329999 0.12899999 4
5.8520002 -2.4849999 0.237 1
6.2189999 -2.6570001 0.36000001 2
6.6500001 -2.8599999 0.5 2
7.1500001 -3.098 0.66399997 2
7.7350001 -3.3770001 0.85399997 1
5.5339999 -2.391 0.134 4
5.8520002 -2.5420001 0.243 1
6.2220001 -2.7190001 0.366 2
6.691 -2.944 0.51099998 7
7.1659999 -3.1760001 0.67299998 2
7.7600002 -3.4649999 0.86699998 2
5.5430002 -2.448 0.139 3
5.8660002 -2.605 0.249 2
6.2449999 -2.7909999 0.37400001 2
0 0 0 50
7.1960001 -3.26 0.68400002 2
7.7849998 -3.5539999 0.87900001 2
5.559 -2.5090001 0.14399999 4
5.8730001 -2.6659999 0.25400001 2
6.2540002 -2.8559999 0.38100001 2
6.691 -3.075 0.52499998 2
7.21 -3.3380001 0.69400001 2
7.8109999 -3.6440001 0.89200002 2
5.5599999 -2.563 0.149 3
5.8850002 -2.7290001 0.25999999 1
6.2719998 -2.925 0.38800001 2
6.7140002 -3.1530001 0.53399998 2
7.2290001 -3.4189999 0.704 2
7.8410001 -3.737 0.90499997 2
0 0 0 50
5.8889999 -2.789 0.266 3
6.27 -2.987 0.39399999 2
6.7319999 -3.2290001 0.54299998 2
7.2600002 -3.507 0.71600002 2
7.881 -3.836 0.92000002 1
5.585 -2.6849999 0.15899999 4
5.908 -2.8559999 0.273 2
6.2919998 -3.0599999 0.40200001 2
6.7639999 -3.3110001 0.55299997 2
7.2709999 -3.585 0.72600001 2
7.9039998 -3.927 0.93199998 2
5.5809999 -2.7379999 0.164 4
5.9159999 -2.9189999 0.27900001 2
6.3080001 -3.131 0.41 2
6.7779999 -3.3859999 0.56199998 2
7.3000002 -3.6730001 0.73799998 2
7.9239998 -4.0170002 0.94499999 1
5.586 -2.796 0.169 4
5.9250002 -2.9820001 0.285 2
6.323 -3.201 0.417 1
6.7969999 -3.464 0.57099998 2
7.3299999 -3.7620001 0.74900001 2
0 0 0 50
5.5869999 -2.852 0.17399999 4
5.947 -3.052 0.292 2
6.3390002 -3.273 0.42500001 2
6.822 -3.5450001 0.58099997 2
7.3579998 -3.8510001 0.76099998 3
8.0010004 -4.2199998 0.97500002 2
5.6020002 -2.915 0.18000001 4
5.9419999 -3.109 0.29699999 2
6.3530002 -3.3440001 0.433 2
6.8369999 -3.6229999 0.58999997 2
7.388 -3.9419999 0.773 2
8.0240002 -4.3140001 0.98799998 2
5.6149998 -2.9779999 0.185 4
5.9559999 -3.1760001 0.303 2
6.3709998 -3.418 0.44 2
6.8579998 -3.7019999 0.59899998 2
7.4060001 -4.027 0.78399998 2
8.066 -4.4200001 1.0039999 2
5.6269999 -3.04 0.19 4
5.9720001 -3.244 0.31 2
6.382 -3.487 0.44800001 2
6.875 -3.7809999 0.60799998 2
0 0 0 50
8.0790005 -4.5100002 1.015 2
5.6290002 -3.098 0.19499999 3
5.9860001 -3.312 0.31600001 2
6.3909998 -3.5569999 0.45500001 2
6.8909998 -3.8599999 0.61699998 2
7.448 -4.2020001 0.80599999 2
8.1049995 -4.6069999 1.029 2
5.638 -3.1589999 0.2 1
5.9920001 -3.3759999 0.322 2
6.414 -3.6340001 0.463 2
6.9130001 -3.9419999 0.62699997 2
7.4619999 -4.2859998 0.81599998 2
8.1569996 -4.7199998 1.046 2
5.638 -3.2149999 0.205 3
0 0 0 50
6.4289999 -3.707 0.47 2
6.9200001 -4.0159998 0.63499999 2
7.5019999 -4.3839998 0.829 2
8.1960001 -4.8260002 1.061 2
5.6529999 -3.28 0.20999999 2
6.0159998 -3.5090001 0.33399999 2
6.4380002 -3.777 0.477 2
6.9330001 -4.0939999 0.64300001 2
7.5289998 -4.4770002 0.84100002 2
8.2040005 -4.9159999 1.072 2
5.6560001 -3.3380001 0.215 2
6.02 -3.572 0.34 2
6.4400001 -3.8429999 0.48300001 2
6.9510002 -4.1750002 0.65200001 2
7.539 -4.5599999 0.85000002 2
8.2309999 -5.0170002 1.086 1
5.665 -3.4000001 0.219 2
6.027 -3.6359999 0.345 2
0 0 0 50
6.9679999 -4.2550001 0.66100001 2
7.5599999 -4.6490002 0.861 2
8.2449999 -5.1079998 1.098 1
5.664 -3.4549999 0.223 1
6.04 -3.7030001 0.35100001 2
6.4790001 -3.9960001 0.498 2
6.9850001 -4.335 0.66900003 2
7.5650001 -4.7280002 0.87 2
8.3070002 -5.2309999 1.1160001 1
5.6700001 -3.5150001 0.228 2
6.0469999 -3.7679999 0.35600001 2
6.4809999 -4.0619998 0.50400001 2
7.007 -4.4190001 0.67799997 2
7.5929999 -4.8210001 0.88099998 2
8.3529997 -5.3439999 1.131 1
0 0 0 50
6.0440001 -3.826 0.361 2
6.494 -4.1339998 0.51099998 2
7.013 -4.4920001 0.685 2
7.619 -4.914 0.89099997 2
8.3859997 -5.4489999 1.1440001 1
5.6890001 -3.6389999 0.236 1
6.0549998 -3.892 0.366 2
6.5120001 -4.2090001 0.51700002 2
7.027 -4.5689998 0.69300002 2
7.645 -5.0050001 0.90200001 2
8.4530001 -5.5749998 1.163 2
5.6900001 -3.694 0.23999999 1
6.0599999 -3.954 0.37 2
0 0 0 50
7.0409999 -4.6469998 0.69999999 2
7.678 -5.1020002 0.91299999 1
8.5889997 -5.75 1.191 2
5.6880002 -3.747 0.243 1
6.0669999 -4.0159998 0.375 2
6.5409999 -4.3540001 0.52999997 2
7.052 -4.7220001 0.70700002 2
7.6799998 -5.178 0.921 2
8.6669998 -5.8870001 1.21 2
5.6939998 -3.806 0.24699999 1
6.0710001 -4.0770001 0.37900001 2
6.5320001 -4.4099998 0.53399998 2
0 0 0 50
7.7030001 -5.2680001 0.93000001 1
8.7130003 -6.0019999 1.225 2
5.697 -3.862 0.25 1
6.0749998 -4.1370001 0.38299999 2
6.539 -4.4759998 0.53799999 2
7.0770001 -4.8740001 0.72100002 1
7.7179999 -5.3509998 0.93800002 1
8.7030001 -6.0760002 1.2309999 3
5.7049999 -3.921 0.25299999 2
6.0879998 -4.2020001 0.38699999 2
6.553 -4.5469999 0.54299998 2
0 0 0 50
7.7399998 -5.4380002 0.94599998 2
8.7869997 -6.2179999 1.251 3
5.7049999 -3.973 0.255 2
6.0749998 -4.25 0.389 2
6.54 -4.598 0.54699999 2
7.0970001 -5.0190001 0.73199999 1
7.7519999 -5.5170002 0.954 2
8.7819996 -6.296 1.257 3
5.7030001 -4.0229998 0.25799999 2
6.0819998 -4.3099999 0.39199999 2
6.54 -4.658 0.55000001 2
7.0960002 -5.0830002 0.73699999 2
7.7620001 -5.5949998 0.95999998 2
8.7189999 -6.3299999 1.255 3
0 0 0 50
6.0840001 -4.3660002 0.39500001 2
6.5430002 -4.7189999 0.55299997 2
7.1009998 -5.1490002 0.741 2
7.7859998 -5.6810002 0.96799999 2
8.6949997 -6.388 1.257 4
5.698 -4.1199999 0.26100001 2
6.0780001 -4.414 0.39700001 2
6.5549998 -4.783 0.55699998 2
7.0939999 -5.2049999 0.74400002 2
7.7579999 -5.7270002 0.96899998 1
8.6420002 -6.4239998 1.255 4
0 0 0 50
6.0910001 -4.4749999 0.40000001 2
6.5489998 -4.8340001 0.55900002 2
7.125 -5.2880001 0.75 1
7.77 -5.8010001 0.97399998 1
8.677 -6.5229998 1.265 5
5.6890001 -4.21 0.26300001 1
6.0900002 -4.5250001 0.40099999 2
6.5539999 -4.8920002 0.56199998 1
7.118 -5.3410001 0.75199997 1
8.0550003 -6.0799999 1.0140001 5
8.5469999 -6.4949999 1.25 7
5.6919999 -4.2589998 0.264 1
6.092 -4.5749998 0.403 2
6.5500002 -4.9419999 0.56300002 1
7.1279998 -5.4050002 0.75599998 1
0 0 0 50
8.3280001 -6.3940001 1.222 6
5.684 -4.2979999 0.264 2
6.0749998 -4.6110001 0.40200001 2
6.5630002 -5.0029998 0.56599998 2
7.138 -5.4679999 0.759 1
8.0799999 -6.2249999 1.023 5
8.3059998 -6.441 1.222 29
5.6750002 -4.335 0.264 1
6.072 -4.6539998 0.403 2
6.5469999 -5.04 0.565 1
7.119 -5.507 0.75800002 1
8.0570002 -6.2670002 1.022 4
0 0 0 50
5.6729999 -4.375 0.264 1
6.073 -4.6989999 0.403 1
6.5440001 -5.085 0.56599998 2
7.1279998 -5.5650001 0.75999999 1
8.0629997 -6.3299999 1.024 4
8.2489996 -6.5149999 1.2180001 28
5.6729999 -4.415 0.264 1
6.0770001 -4.7459998 0.403 1
6.5370002 -5.125 0.565 1
7.1149998 -5.605 0.759 1
8.0290003 -6.3579998 1.021 4
8.224 -6.5510001 1.216 29
5.6529999 -4.4390001 0.26199999 1
6.0450001 -4.7620001 0.40099999 1
6.5219998 -5.1560001 0.56400001 1
0 0 0 50
7.9910002 -6.3790002 1.017 4
8.2010002 -6.585 1.2130001 27
5.6469998 -4.4710002 0.26100001 1
6.0370002 -4.7940001 0.40000001 1
6.5320001 -5.2059999 0.56400001 1
7.0679998 -5.6570001 0.75400001 1
7.9959998 -6.4310002 1.017 4
8.1850004 -6.6209998 1.211 28
5.631 -4.493 0.259 1
6.04 -4.8319998 0.39899999 1
6.5250001 -5.2379999 0.56199998 1
7.0349998 -5.6700001 0.74900001 1
7.9320002 -6.4250002 1.008 3
8.1420002 -6.631 1.204 22
5.6230001 -4.5190001 0.257 1
0 0 0 50
6.4920001 -5.2480001 0.55800003 1
7.0879998 -5.7519999 0.75400001 1
7.803 -6.3610001 0.991 2
8.0710001 -6.6149998 1.192 17
5.632 -4.5570002 0.25600001 1
6.0159998 -4.8790002 0.39399999 1
6.4959998 -5.2839999 0.55699998 1
7.0809999 -5.7820001 0.75099999 1
7.7649999 -6.368 0.98400003 2
8.0550003 -6.6399999 1.189 30
5.6279998 -4.5819998 0.25299999 2
5.9499998 -4.855 0.38800001 1
6.4689999 -5.2930002 0.55299997 1
7.0650001 -5.8010001 0.74800003 1
7.7399998 -6.382 0.97899997 2
8.0450001 -6.6659999 1.1849999 37
5.6129999 -4.5949998 0.25 2
5.8730001 -4.8169999 0.38 2
6.4619999 -5.3140001 0.55000001 1
7.0219998 -5.7950001 0.741 1
7.704 -6.382 0.972 3
8.0699997 -6.7179999 1.186 20
5.5939999 -4.6030002 0.24699999 1
5.6399999 -4.6490002 0.36300001 12
6.4380002 -5.3200002 0.54500002 1
7.0040002 -5.8060002 0.736 1
7.6370001 -6.3540001 0.95999998 3
8.04 -6.7199998 1.179 9
5.572 -4.6059999 0.243 1
5.651 -4.678 0.361 23
6.4229999 -5.329 0.54100001 1
6.9949999 -5.8200002 0.73199999 1
7.5749998 -6.3260002 0.949 3
8.0089998 -6.717 1.171 7
5.5619998 -4.6149998 0.23899999 1
5.7529998 -4.7810001 0.36399999 2
6.4109998 -5.3379998 0.53600001 1
6.9770002 -5.8239999 0.727 1
7.5180001 -6.2969999 0.93800002 3
0 0 0 50
5.5419998 -4.6139998 0.236 1
5.7909999 -4.8270001 0.36300001 2
6.3899999 -5.336 0.53100002 1
6.9520001 -5.8189998 0.72000003 1
7.4879999 -6.2880001 0.93000001 2
7.9749999 -6.723 1.156 5
5.5359998 -4.6220002 0.23199999 1
5.8439999 -4.8839998 0.36300001 2
6.3759999 -5.3369999 0.52600002 1
6.9320002 -5.8150001 0.71399999 1
7.4429998 -6.2620001 0.92000002 2
7.9419999 -6.7069998 1.147 4
5.5120001 -4.6129999 0.227 1
5.862 -4.9089999 0.36000001 1
6.368 -5.3400002 0.52100003 1
6.915 -5.8099999 0.70700002 1
7.4130001 -6.2449999 0.91100001 2
7.9159999 -6.691 1.137 5
5.506 -4.6160002 0.223 1
5.8720002 -4.9239998 0.35699999 1
6.3429999 -5.3239999 0.51499999 1
6.9099998 -5.8109999 0.70200002 1
7.4000001 -6.2379999 0.90399998 2
7.9000001 -6.6810002 1.1289999 5
5.4970002 -4.6129999 0.219 1
5.8610001 -4.9190001 0.352 1
6.3210001 -5.309 0.50800002 1
6.8639998 -5.7740002 0.69199997 1
7.3839998 -6.2259998 0.89700001 2
7.8909998 -6.6719999 1.122 5
5.4780002 -4.599 0.214 1
5.8569999 -4.9159999 0.347 1
6.2969999 -5.289 0.50099999 1
6.8639998 -5.7729998 0.68699998 1
7.3850002 -6.223 0.89099997 3
7.8850002 -6.6630001 1.115 5
5.467 -4.5890002 0.20999999 1
5.8449998 -4.9050002 0.34299999 1
6.2800002 -5.2719998 0.495 1
0 0 0 50
7.388 -6.2189999 0.88599998 3
7.8660002 -6.6370001 1.1059999 6
5.4520001 -4.573 0.205 1
5.8169999 -4.8759999 0.336 1
6.2740002 -5.2600002 0.49000001 1
6.803 -5.7080002 0.67000002 1
7.414 -6.23 0.88300002 3
7.8699999 -6.6279998 1.099 6
5.4400001 -4.5570002 0.20100001 1
5.8109999 -4.8639998 0.331 1
6.2490001 -5.2290001 0.48300001 1
6.796 -5.6900001 0.66399997 1
7.4159999 -6.2179999 0.87599999 3
7.842 -6.5879998 1.089 6
5.4289999 -4.5380001 0.19599999 2
5.7950001 -4.8400002 0.32600001 1
6.2340002 -5.204 0.477 1
6.757 -5.6430001 0.65499997 1
7.3990002 -6.1859999 0.86799997 2
7.7649999 -6.5029998 1.0700001 6
5.4099998 -4.5110002 0.191 1
5.7729998 -4.8080001 0.31999999 1
6.2010002 -5.1609998 0.46900001 1
6.737 -5.6079998 0.64600003 1
7.3649998 -6.1360002 0.85699999 2
7.7069998 -6.4299998 1.0549999 3
5.4099998 -4.4970002 0.18700001 1
5.7659998 -4.7859998 0.315 1
6.1950002 -5.138 0.46399999 2
6.717 -5.5700002 0.639 1
7.3569999 -6.1040001 0.85000002 1
7.711 -6.4060001 1.049 3
5.3920002 -4.4650002 0.183 2
5.6880002 -4.7020001 0.30599999 2
6.1630001 -5.0900002 0.456 2
6.684 -5.5180001 0.63 1
7.3060002 -6.0349998 0.83700001 2
0 0 0 50
5.3829999 -4.4390001 0.178 2
5.6539998 -4.6539998 0.30000001 8
6.1690001 -5.0710001 0.45199999 2
6.6739998 -5.4829998 0.62300003 1
7.329 -6.0219998 0.833 2
7.8920002 -6.4899998 1.058 4
5.388 -4.4219999 0.175 2
5.6700001 -4.6430001 0.29699999 31
6.1550002 -5.033 0.44600001 2
6.6599998 -5.441 0.616 1
7.5240002 -6.1459999 0.84899998 2
7.9629998 -6.5089998 1.0599999 3
5.3610001 -4.375 0.17 1
5.6890001 -4.632 0.294 25
6.1500001 -4.9990001 0.44100001 2
6.6279998 -5.382 0.60799998 1
7.4650002 -6.0599999 0.83499998 2
7.9809999 -6.4809999 1.0549999 2
5.349 -4.3400002 0.16599999 1
5.704 -4.6160002 0.29100001 2
6.1339998 -4.954 0.435 2
6.6389999 -5.3559999 0.60399997 1
7.2119999 -5.8140001 0.801 1
0 0 0 50
5.3520002 -4.3130002 0.163 1
5.698 -4.5799999 0.28600001 1
6.1220002 -4.9099998 0.43000001 2
6.599 -5.2849998 0.59500003 1
7.3909998 -5.9159999 0.81400001 3
8.0500002 -6.4419999 1.049 4
5.3379998 -4.2719998 0.15899999 1
5.6859999 -4.5370002 0.28200001 1
6.112 -4.8660002 0.42500001 2
6.5999999 -5.2459998 0.58999997 2
7.1750002 -5.697 0.78500003 1
8.0500002 -6.3909998 1.0420001 5
5.3239999 -4.2280002 0.155 1
5.6849999 -4.5009999 0.278 2
6.1020002 -4.8189998 0.41999999 1
6.5819998 -5.1890001 0.583 2
7.1529999 -5.6329999 0.77700001 2
8.0539999 -6.3390002 1.035 5
5.323 -4.1929998 0.152 1
5.678 -4.4580002 0.27500001 2
6.0879998 -4.7670002 0.41499999 2
6.5799999 -5.1430001 0.57800001 2
0 0 0 50
8.033 -6.2659998 1.026 5
5.3210001 -4.1560001 0.149 2
5.6700001 -4.4130001 0.271 2
6.0780001 -4.717 0.41 2
6.5599999 -5.0809999 0.57200003 2
7.1279998 -5.5120001 0.76300001 2
8.0570002 -6.2249999 1.023 5
5.3130002 -4.112 0.147 2
5.6659999 -4.369 0.26800001 2
6.073 -4.6690001 0.40599999 2
6.5510001 -5.0250001 0.56699997 2
7.1090002 -5.4429998 0.75599998 2
8.0570002 -6.164 1.016 5
5.3299999 -4.086 0.145 2
0 0 0 50
6.0770001 -4.6259999 0.403 2
6.5560002 -4.9780002 0.56400001 2
7.0970001 -5.3790002 0.74900001 2
8.026 -6.0760002 1.006 6
5.3210001 -4.0380001 0.14300001 2
5.6659999 -4.283 0.26300001 2
6.0770001 -4.5780001 0.40000001 2
6.5349998 -4.9099998 0.55800003 2
7.0949998 -5.3200002 0.745 2
7.723 -5.783 0.963 2
5.323 -3.997 0.141 2
5.6609998 -4.2329998 0.25999999 2
6.0689998 -4.5219998 0.39700001 2
6.5240002 -4.848 0.55299997 2
0 0 0 50
7.7119999 -5.71 0.95599997 2
5.323 -3.9530001 0.139 2
5.6659999 -4.1890001 0.25799999 2
6.073 -4.4749999 0.39399999 2
6.5489998 -4.8109999 0.55199999 2
7.0739999 -5.1849999 0.73500001 2
7.7199998 -5.6490002 0.95200002 2
5.3260002 -3.9100001 0.138 2
5.6700001 -4.145 0.257 2
6.066 -4.4169998 0.39199999 2
6.5300002 -4.7399998 0.54799998 2
7.0619998 -5.1149998 0.73000002 2
0 0 0 50
5.322 -3.8610001 0.13699999 2
5.671 -4.0960002 0.255 2
6.0689998 -4.3660002 0.389 2
6.5359998 -4.6869998 0.546 2
7.0700002 -5.0570002 0.727 2
7.6950002 -5.493 0.94 2
5.3309999 -3.8210001 0.13699999 2
5.6849999 -4.0549998 0.25400001 2
6.059 -4.3060002 0.38800001 2
6.54 -4.632 0.54400003 2
